ply
format ascii 1.0
comment Created by Open3D
element vertex 882
property double x
property double y
property double z
property double nx
property double ny
property double nz
end_header
-19.5354 -54.6444 -627.709 -0.771927 0.535435 0.342692
-12.1552 -43.8328 -633.833 -0.829182 0.541713 -0.137856
74.5743 -36.8534 -631.073 0.608725 -0.792107 0.0449565
16.0227 2.55221 -627.076 -0.668264 0.729682 0.144869
147.047 20.0517 -628.667 -0.0872415 -0.981938 0.16789
113.977 35.3719 -630.429 -0.0503295 0.85856 0.510236
167.456 38.4023 -629.061 0.897919 0.435998 0.0603956
153.698 58.4757 -630.202 0.553065 0.42362 0.717402
156.028 60.1422 -629.912 0.651281 0.413174 0.63649
-9.1776 -85.3352 -631.877 0.465038 -0.710329 -0.528367
13.8985 -70.628 -631.108 0.529576 -0.847471 -0.0366291
26.6857 -62.6342 -630.192 0.497188 -0.867541 -0.0132971
-23.0957 -58.4291 -631.017 -0.833541 0.552375 0.00958816
39.0256 -55.8833 -627.461 0.40282 -0.883249 0.240017
43.7165 -54.1746 -632.781 0.408478 -0.910344 -0.0664806
82.4973 -28.9591 -629.128 0.740007 -0.633211 0.226791
6.31704 -11.0476 -626.319 -0.952112 0.298865 -0.0645168
141.368 18.3072 -631.489 0.0678726 -0.997157 -0.032715
165.679 21.2377 -630.593 0.130765 -0.215513 -0.967706
170.101 30.2889 -627.515 0.925525 0.366657 -0.0946895
75.1267 34.725 -628.091 -0.318815 0.929636 0.184755
157.166 54.5524 -627.737 0.701917 0.466226 0.538466
145.015 64.708 -629.871 -0.666522 0.558047 0.4943
152.841 67.8659 -629.461 0.418258 0.722505 0.550497
148.786 67.6525 -628.442 -0.153158 0.682016 0.71512
-38.5437 -125.296 -629.273 0.0515522 -0.341436 -0.93849
-46.7156 -119.706 -629.164 -0.669377 -0.0762474 -0.739
-20.9521 -98.5718 -628.013 0.736985 -0.674042 -0.050196
-4.13496 -83.7408 -629.586 0.579222 -0.796574 -0.173122
-2.45581 -82.757 -626.584 0.59133 -0.806279 0.0155873
7.23074 -75.3307 -629.996 0.586301 -0.809937 -0.0159147
15.6234 -69.6385 -627.01 0.521264 -0.802126 0.291338
19.0484 -67.1096 -631.412 0.480979 -0.876042 -0.0347719
138.594 18.2106 -627.178 0.112768 -0.883245 0.455149
38.89 19.8372 -624.741 -0.388881 0.840951 0.376262
171.226 21.3575 -629.192 0.85324 0.0769371 -0.515811
69.0763 32.6719 -628.653 -0.438823 0.872267 0.215833
106.4 35.9317 -631.704 0.0581613 0.924322 0.377154
95.3457 37.1802 -630.801 0.120569 0.986804 0.108075
123.15 37.2975 -631.528 -0.2932 0.896416 0.332374
163.589 47.7624 -627.904 0.890423 0.351248 0.289433
147.383 60.2851 -629.036 -0.481246 0.240369 0.842986
-43.1252 -129.235 -628.901 -0.201106 -0.146824 -0.968504
-48.1494 -116.08 -628.241 -0.784367 0.0115355 -0.62019
-48.1494 -116.216 -628.207 -0.784367 0.0115355 -0.62019
-48.1494 -115.58 -628.245 -0.784367 0.0115355 -0.62019
-48.1494 -115.442 -628.207 -0.784367 0.0115355 -0.62019
-6.45794 -86.06 -626.598 0.642623 -0.757229 0.116795
21.552 -66.2833 -627.963 0.51354 -0.854214 0.0812112
-10.4418 -42.2409 -627.18 -0.778871 0.574449 0.251732
68.3513 -38.0769 -625.255 0.517969 -0.748533 0.414012
12.3268 -1.2576 -628.044 -0.752161 0.658136 0.0333262
169.303 20.3831 -629.44 0.566841 -0.0672022 -0.821081
172.01 12.6185 -627.216 0.582388 -0.00764595 -0.812875
171.851 21.92 -628.55 0.853066 0.113068 -0.509406
172.092 21.92 -628.207 0.943227 0.151774 -0.295446
171.851 22.42 -628.545 0.933716 0.17076 -0.314668
171.851 22.92 -628.543 0.930823 0.173574 -0.321622
171.9 23.42 -628.207 0.933795 0.176071 -0.311491
171.572 25.42 -628.207 0.939473 0.161155 -0.302356
170.19 28.9645 -630.835 0.895367 0.220381 -0.386976
145.879 57.8591 -628.436 -0.570565 0.182746 0.800662
-40.171 -131.767 -628.384 0.402214 -0.286606 -0.869529
-51.6494 -133.08 -627.943 0.808137 -0.0711554 -0.584681
-51.6494 -132.58 -627.909 0.818609 -0.0801094 -0.568737
-51.4037 -133.08 -627.707 0.808137 -0.0711554 -0.584681
-45.8998 -132.563 -628.039 -0.0853125 -0.452453 -0.887698
-51.6494 -132.08 -627.767 0.820444 -0.0763253 -0.566609
-51.6494 -131.58 -627.874 0.81478 -0.0691398 -0.575633
-51.6494 -131.08 -628.041 0.794225 -0.0640621 -0.604237
-51.6494 -130.58 -628.142 0.794629 -0.0643098 -0.603679
-51.7539 -130.58 -628.207 0.794629 -0.0643098 -0.603679
-51.6494 -130.08 -628.158 0.794587 -0.063625 -0.603807
-51.1936 -130.08 -627.636 0.777779 -0.0682445 -0.624822
-51.1494 -129.58 -627.715 0.769455 -0.0840674 -0.633144
-51.1456 -129.58 -627.707 0.769455 -0.0840674 -0.633144
-35.6281 -117.846 -629.957 0.229436 -0.265689 -0.936359
-48.0125 -117.071 -628.182 -0.773001 -0.0280056 -0.633786
-48.5604 -116.08 -627.707 -0.824492 0.00720682 -0.565828
-48.5872 -115.58 -627.707 -0.790225 0.00635743 -0.612783
-11.5962 -89.8334 -627.75 0.620017 -0.757292 -0.205153
3.95216 -77.892 -627.235 0.570028 -0.748386 0.339097
72.8542 -36.7664 -627.161 0.548057 -0.806497 0.221802
84.7247 -23.5242 -627.3 0.748376 -0.596886 0.289242
110.503 9.06723 -628.227 0.683873 -0.616984 0.389421
132.642 16.2681 -629.903 0.215338 -0.942809 0.254443
172.351 19.92 -627.966 0.949672 0.121107 -0.288887
172.562 19.92 -627.707 0.952507 0.132726 -0.274068
172.351 20.42 -627.934 0.950494 0.1275 -0.283382
172.351 20.92 -627.961 0.947985 0.134758 -0.288384
172.351 21.42 -628.017 0.949176 0.151266 -0.276014
172.492 21.42 -627.707 0.952897 0.137073 -0.270553
172.493 20.92 -627.707 0.952847 0.135639 -0.271448
44.2206 20.8506 -624 -0.335817 0.855844 0.393394
172.351 21.92 -628.034 0.948967 0.152856 -0.275857
172.136 22.92 -627.707 0.946342 0.162839 -0.279141
172.033 24.3551 -626.033 0.964303 0.184166 -0.19027
171.77 24.92 -627.707 0.933795 0.176071 -0.311491
171.514 25.92 -627.707 0.938655 0.198763 -0.281817
94.1245 34.8362 -625.001 0.145383 0.923684 0.354501
166.994 37.2964 -625.918 0.770491 0.271495 0.576744
149.326 58.7254 -627.55 -0.0346003 0.240238 0.970097
147.773 63.8673 -627.682 -0.275441 0.539392 0.795732
150.307 64.6737 -627.685 0.15874 0.502278 0.850011
-17.5417 -186.585 -627.378 0.172867 0.0713363 -0.982358
-41.2695 -136.343 -627.582 0.176931 -0.257728 -0.94988
-51.1494 -133.08 -627.268 0.808137 -0.0711554 -0.584681
-51.1228 -130.733 -627.248 0.794629 -0.0643098 -0.603679
-51.1227 -133.08 -627.207 0.800244 -0.0684916 -0.59575
-51.0923 -129.08 -627.707 0.788504 -0.250367 -0.561764
-50.8178 -129.08 -627.207 0.788504 -0.250367 -0.561764
-45.5053 -124.874 -629.386 -0.501177 -0.0822 -0.861432
-48.6494 -121.08 -627.441 -0.809828 -0.0533894 -0.584233
-48.8965 -121.08 -627.207 -0.863131 -0.0712374 -0.49993
-48.6494 -120.58 -627.409 -0.807539 -0.0606621 -0.586686
-48.6494 -120.08 -627.29 -0.80878 -0.0540523 -0.585623
-48.6494 -119.58 -627.304 -0.803836 -0.0364422 -0.593734
-48.6494 -119.08 -627.393 -0.804151 -0.0298049 -0.593678
-48.6494 -118.58 -627.572 -0.797504 -0.0354799 -0.60227
-48.6494 -118.08 -627.644 -0.775914 -0.0339547 -0.629924
-48.6494 -117.58 -627.567 -0.787206 -0.042634 -0.615215
-48.6494 -117.08 -627.68 -0.787206 -0.042634 -0.615215
-48.9292 -115.284 -627.24 -0.824492 0.00720682 -0.565828
-49.0175 -117.08 -627.207 -0.858877 0.0260549 -0.51152
-41.7668 -91.348 -626.979 -0.914656 0.359591 -0.184656
33.2771 -59.5887 -629.888 0.456512 -0.886488 0.0757381
77.6032 -31.2423 -625.592 0.662497 -0.643403 0.383575
-0.297964 -27.1264 -625.158 -0.860836 0.175683 0.477595
99.2677 -4.67349 -628.523 0.743045 -0.595127 0.306117
27.9073 13.7006 -627.952 -0.576309 0.758475 0.304275
156.587 17.9122 -628.229 0.591852 0.144599 -0.79297
172.764 18.92 -627.207 -0.967329 -0.125129 0.220492
172.851 19.1255 -627.207 0.969793 0.130905 -0.20583
172.851 19.42 -627.347 0.967552 0.12809 -0.217798
172.351 22.5752 -627.707 0.946342 0.162839 -0.279141
172.351 22.774 -627.207 0.954288 0.163715 -0.250065
171.646 25.42 -627.207 0.939934 0.172415 -0.294614
-17.4843 -187.814 -626.916 0.190468 -0.339187 -0.921235
-10.1654 -187.156 -626.382 0.795221 0.606304 -0.00436909
-50.8199 -133.08 -626.707 0.704589 -0.109727 -0.701081
-36.3832 -131.274 -626.164 0.697629 -0.228245 -0.679131
-50.6494 -129.08 -626.898 0.788504 -0.250367 -0.561764
-50.4409 -128.58 -626.707 0.791814 -0.29242 -0.53621
-50.6494 -128.58 -627.129 0.791814 -0.29242 -0.53621
-48.4978 -127.222 -626.978 -0.880264 0.379092 -0.28535
-49.1494 -126.58 -626.721 -0.857034 0.261123 -0.444193
-49.1494 -126.639 -626.707 -0.857034 0.261123 -0.444193
-48.6494 -126.08 -626.872 -0.818751 0.160124 -0.551369
-48.6494 -125.58 -626.788 -0.814861 0.106205 -0.569844
-48.6494 -125.08 -627.02 -0.834712 0.0464228 -0.548726
-48.6494 -124.58 -627.176 -0.852539 -0.0137076 -0.522483
-48.6494 -124.08 -627.157 -0.857264 -0.0256698 -0.514237
-48.6494 -123.58 -627.035 -0.86173 -0.0260504 -0.506698
-48.6494 -123.08 -626.928 -0.856803 -0.0557 -0.512627
-48.8743 -122.58 -626.707 -0.859207 -0.0535887 -0.508815
-49.1494 -121.58 -626.82 -0.863405 -0.0659022 -0.500188
-49.1494 -121.705 -626.707 -0.86308 -0.0691127 -0.500316
-49.1494 -121.08 -626.952 -0.863131 -0.0712374 -0.49993
-49.1494 -117.08 -626.909 -0.860971 0.0242661 -0.508075
-49.232 -117.08 -626.707 -0.860971 0.0242661 -0.508075
-27.3943 -109.345 -624.85 0.807467 -0.585154 -0.0747785
-26.7433 -106.248 -627.623 0.793959 -0.47514 -0.379303
-20.1562 -99.1734 -624.618 0.780711 -0.606513 0.150438
24.1798 -61.9186 -624.099 0.464497 -0.711095 0.527812
162.439 18.0962 -627.69 0.00152286 -0.348061 -0.937471
30.9906 16.3059 -628.197 -0.53331 0.803862 0.263415
172.851 18.42 -627.076 0.965933 0.112972 -0.232831
172.952 18.42 -626.707 0.967799 0.11238 -0.225244
172.351 22.92 -626.809 0.964371 0.17711 -0.196519
172.351 22.9418 -626.707 0.964371 0.17711 -0.196519
52.9408 25.8938 -630.749 -0.3482 0.919343 0.183209
143.535 50.2146 -627.415 -0.56564 0.37798 0.732927
-11.2221 -190.133 -626.558 -0.0417801 -0.647484 -0.760933
-10.2099 -188.801 -626.997 0.734787 0.0685934 -0.674821
-21.5936 -186.108 -626.144 0.0901116 -0.105613 -0.990316
-12.2049 -185.854 -625.308 -0.634952 -0.67168 -0.381684
-19.0151 -182.793 -626.964 0.1415 0.390198 -0.909793
-25.4794 -181.285 -626.805 0.107173 0.195007 -0.974929
-28.7692 -175.801 -626.543 0.386734 0.277205 -0.879542
-38.9332 -155.485 -626.217 0.398099 0.0590414 -0.91544
-40.4603 -144.28 -626.713 0.455313 -0.0245244 -0.889993
-38.1731 -137.826 -626.181 0.750973 0.0250112 -0.659859
-49.644 -133.959 -624.754 0.754676 -0.0297102 -0.655424
-50.9049 -133.58 -626.707 0.705504 -0.113987 -0.699479
-50.6494 -134.08 -626.419 0.700642 -0.12323 -0.702791
-50.4663 -134.08 -626.207 0.727942 -0.0789707 -0.681076
-49.4824 -128.634 -625.849 -0.879503 0.465275 -0.09997
-50.1644 -128.58 -626.207 0.89354 -0.40716 -0.189225
-50.1494 -128.08 -626.307 0.727575 -0.551479 0.408051
-50.1494 -128.46 -626.207 0.89072 -0.413991 -0.187696
-50.0922 -128.08 -626.207 0.727575 -0.551479 0.408051
-49.1494 -127.08 -626.599 -0.834082 0.357426 -0.420183
-49.1494 -127.575 -626.207 -0.820742 0.422719 -0.384305
-49.1095 -123.08 -626.207 -0.859003 -0.0562068 -0.508876
-48.6432 -121.688 -627.352 -0.864352 -0.060179 -0.499274
-49.1494 -122.08 -626.419 -0.85938 -0.0427592 -0.509546
-49.1494 -122.422 -626.207 -0.860642 -0.0477088 -0.50697
-49.4994 -117.58 -626.207 -0.871892 0.0281605 -0.488888
106.214 4.98766 -625.829 0.63158 -0.597973 0.493493
168.01 11.333 -627.624 -0.200866 -0.181856 -0.962591
28.3402 12.2101 -623.579 -0.548915 0.6981 0.459727
119.699 12.6174 -630.794 0.461614 -0.86933 0.176575
173.081 17.92 -626.207 0.965624 0.142149 -0.217633
153.028 20.3548 -627.06 -0.26262 -0.878871 0.398267
41.0274 20.8216 -627.522 -0.373187 0.87757 0.301002
172.351 22.92 -626.346 0.966923 0.174968 -0.185597
172.496 22.42 -626.207 0.966825 0.169485 -0.191114
129.488 34.1991 -624.759 -0.305833 0.649256 0.696371
141.118 44.1878 -624.773 -0.461319 0.518907 0.719667
147.57 53.194 -627.578 -0.424078 0.23173 0.875477
-8.96175 -190.08 -625.707 0.906014 -0.386775 -0.171885
-8.6494 -189.77 -625.707 0.99574 -0.0869492 0.0306739
-8.6494 -189.58 -626.109 0.99932 -0.0361225 -0.00733791
-8.6494 -189.08 -626.13 0.984135 0.15185 -0.0917582
-8.6494 -188.58 -625.912 0.982052 0.176636 -0.0661306
-8.6494 -188.08 -625.786 0.961997 0.273042 0.0030885
-9.6494 -187.58 -626.188 0.883613 0.463751 -0.0645199
-9.1494 -187.58 -625.764 0.89712 0.441638 -0.0114157
-9.6494 -187.133 -625.707 0.805439 0.589264 0.0635342
-10.0905 -186.58 -625.707 0.69927 0.675118 0.235026
-9.6494 -187.066 -625.707 -0.805439 -0.589264 -0.0635342
-9.6494 -186.58 -626.046 -0.783775 -0.619564 -0.0428595
-10.1494 -186.08 -626.014 -0.698794 -0.676333 -0.232941
-10.5936 -186.08 -625.707 0.701047 0.671384 0.240369
-10.6494 -185.58 -626.01 -0.699899 -0.671367 -0.243738
-11.0698 -185.58 -625.707 -0.6808 -0.683027 -0.264548
-11.1494 -185.08 -625.969 -0.685426 -0.687831 -0.238912
-11.5217 -185.08 -625.707 -0.66455 -0.675365 -0.319774
-23.0222 -180.075 -626.184 0.354878 0.548113 -0.757386
-37.019 -171.212 -625.807 -0.657431 -0.494728 -0.568356
-40.5201 -161.235 -626.032 -0.49316 -0.321631 -0.808298
-40.8951 -149.839 -626.322 0.0830442 -0.0960523 -0.991906
-43.1672 -155.191 -625.999 -0.438436 -0.170287 -0.882483
-44.3064 -147.377 -626.195 -0.396173 -0.123863 -0.909783
-45.095 -140.678 -626.909 -0.404448 -0.161447 -0.900198
-50.2842 -134.08 -625.707 0.774046 0.00067129 -0.633129
-49.8266 -131.845 -625.685 0.801021 -0.0784893 -0.593469
-49.6494 -128.08 -625.751 -0.765522 0.523985 -0.373385
-49.6494 -127.58 -625.789 -0.806728 0.453091 -0.379341
-49.1494 -123.08 -626.149 -0.859003 -0.0562068 -0.508876
-49.1494 -123.117 -626.207 -0.859003 -0.0562068 -0.508876
-49.1494 -122.58 -626.118 -0.860642 -0.0477088 -0.50697
-49.6494 -119.08 -626.12 -0.85614 -0.0286753 -0.515947
-49.7827 -119.08 -625.707 -0.887811 -0.031769 -0.45911
-49.6219 -119.08 -626.207 -0.85614 -0.0286753 -0.515947
-49.5908 -118.58 -626.207 -0.854855 -0.0184583 -0.518539
-49.5523 -118.08 -626.207 -0.845862 -0.0210699 -0.532986
-30.5893 -115.473 -626.263 0.692745 -0.50731 -0.512583
-49.6244 -114.369 -624.701 -0.940598 0.217627 -0.260602
-45.1913 -99.4967 -626.271 -0.929585 0.344984 -0.129839
-43.8597 -95.9543 -623.841 -0.908129 0.416491 0.0428538
8.42625 -71.4884 -622.94 0.440806 -0.602366 0.665466
9.37244 -74.0197 -627.437 0.566754 -0.77255 0.286281
12.2282 -69.5366 -623.644 0.388092 -0.648169 0.655181
50.8838 -50.2344 -627.135 0.413136 -0.879615 0.23579
57.7521 -46.3076 -627.586 0.476889 -0.82253 0.309873
65.2276 -42.3465 -629.027 0.483109 -0.835643 0.261357
-6.16615 -36.2435 -626.06 -0.797563 0.457547 0.393122
2.71979 -19.5154 -625.721 -0.941995 0.255021 0.218196
92.0742 -12.9703 -626.815 0.748089 -0.548964 0.372829
172.385 8.76922 -626.116 0.654462 -0.140487 -0.742929
173.028 16.0125 -626.995 0.910586 0.0220087 -0.412732
173.465 16.42 -625.707 0.948706 0.175578 -0.262925
173.389 16.92 -625.707 0.95221 0.166746 -0.255915
173.351 17.0292 -625.707 0.955273 0.168615 -0.242945
159.042 15.9334 -625.254 -0.583123 -0.0968059 0.806595
173.351 17.5356 -625.707 0.964463 0.144558 -0.221168
173.351 17.92 -625.996 0.965624 0.142149 -0.217633
132.454 18.024 -626.341 0.115444 -0.743137 0.659106
172.851 21.1749 -626.207 0.969138 0.158595 -0.188732
172.851 21.1492 -625.707 0.970573 0.156561 -0.182964
172.757 21.42 -626.207 0.969138 0.158595 -0.188732
172.62 21.92 -626.207 0.966825 0.169485 -0.191114
48.9357 23.0489 -625.265 -0.316161 0.897722 0.306819
112.947 32.4623 -626.949 0.0158934 0.749863 0.661402
72.2943 31.9446 -624.865 -0.416727 0.902303 0.110399
97.7981 34.6394 -626.334 0.19312 0.888695 0.415844
-9.6494 -190.633 -625.207 0.578638 -0.804953 -0.131259
-9.50857 -190.58 -625.207 0.705418 -0.707838 -0.0367472
-9.1494 -190.44 -625.207 0.866367 -0.430582 0.252995
-8.6494 -190.08 -625.54 0.969399 -0.240589 0.0488123
-9.6494 -187.08 -625.676 0.805439 0.589264 0.0635342
-11.6494 -185.08 -625.527 -0.634065 -0.676844 -0.373958
-12.1494 -184.58 -625.392 -0.60734 -0.726368 -0.321759
-12.4929 -184.58 -625.207 -0.603063 -0.72641 -0.329613
-12.6494 -184.08 -625.325 0.604507 0.727512 0.324495
-12.8656 -184.08 -625.207 0.606261 0.7299 0.315743
-13.3827 -183.58 -625.207 0.623144 0.720752 0.303659
-13.1494 -183.58 -625.29 0.61472 0.725655 0.309102
-13.6494 -183.08 -625.317 -0.619801 -0.718771 -0.314982
-13.9369 -183.08 -625.207 -0.591778 -0.745346 -0.307014
-13.6494 -183.351 -625.207 -0.64132 -0.704448 -0.304075
-28.1329 -181.608 -625.428 -0.0872126 -0.171778 -0.981268
-15.6494 -181.58 -625.273 -0.605697 -0.688555 -0.398776
-16.0159 -181.58 -625.207 -0.605697 -0.688555 -0.398776
-15.6494 -181.668 -625.207 -0.596293 -0.688308 -0.413117
-16.1494 -181.08 -625.241 -0.634074 -0.668078 -0.389386
-16.3482 -181.08 -625.207 -0.634074 -0.668078 -0.389386
-32.9726 -174.978 -626.209 0.145237 0.139561 -0.979504
-34.5038 -166.377 -625.771 0.412675 0.215238 -0.885083
-45.8499 -136.982 -627.106 -0.463482 -0.18058 -0.867511
-47.3645 -134.558 -626.651 -0.307444 -0.49962 -0.809851
-50.1494 -134.519 -625.207 0.742186 -0.0504874 -0.66829
-50.0117 -134.08 -625.207 -0.754676 0.0297102 0.655424
-49.9532 -119.58 -625.207 -0.886583 -0.0366213 -0.461118
-16.7474 -95.0081 -624.913 0.697711 -0.61164 0.372956
17.3779 -66.6451 -624.016 0.46272 -0.757787 0.460053
44.6623 -53.5004 -628.617 0.406228 -0.892817 0.194566
62.9531 -40.9092 -623.682 0.44026 -0.75221 0.490257
173.851 9.45679 -625.207 0.943596 0.0229408 -0.330304
173.851 9.92003 -625.229 0.918788 0.0297115 -0.393632
173.861 9.92003 -625.207 0.938262 0.021889 -0.345233
173.851 10.42 -625.281 0.922255 0.0040199 -0.386561
173.851 10.92 -625.341 0.926981 -0.0239818 -0.374342
173.851 11.42 -625.474 0.908704 -0.0368325 -0.415812
173.851 11.92 -625.59 0.949631 -0.0335154 -0.311572
173.851 12.42 -625.297 0.959741 -0.0132689 -0.280574
173.851 12.92 -625.372 0.95999 -0.017035 -0.279517
160.665 14.5509 -626.245 0.643706 0.0195631 -0.765023
173.851 13.42 -625.339 0.948401 -0.00511986 -0.317032
173.851 13.92 -625.47 0.937506 0.00574254 -0.347921
173.851 14.42 -625.488 0.91807 0.0291377 -0.395346
173.851 14.92 -625.287 0.952644 0.0751647 -0.294652
173.851 15.42 -625.357 0.949309 0.100225 -0.29794
173.851 15.92 -625.341 0.968838 0.173915 -0.176373
173.351 17.42 -625.592 0.958578 0.155739 -0.23848
172.851 20.9655 -625.207 0.978872 0.187604 -0.0813311
155.82 23.0492 -625.197 -0.0869934 -0.631325 0.770624
61.883 27.5284 -624.493 -0.526774 0.827424 0.194623
86.6659 35.1613 -623.198 0.0295528 0.93943 0.341465
-10.1494 -190.824 -624.707 0.431956 -0.901716 0.0179664
-9.1494 -190.58 -625.082 0.81145 -0.502233 0.298848
-9.1494 -187.58 -625.078 0.848019 0.462723 0.258362
-9.1494 -187.856 -624.707 0.876663 0.422447 0.230219
-9.6494 -187.08 -624.973 0.748191 0.588968 0.305495
-10.1494 -186.58 -624.975 0.699558 0.674895 0.234809
-10.6494 -186.08 -624.893 0.701047 0.671384 0.240369
-10.6016 -187.013 -624.255 0.710582 0.625124 0.322943
-10.8039 -186.08 -624.707 0.649053 0.68418 0.332606
-11.1494 -185.58 -624.932 0.642245 0.669534 0.373155
-11.1494 -185.765 -624.707 0.642245 0.669534 0.373155
-11.3455 -185.58 -624.707 0.639711 0.674186 0.369111
-14.2415 -184.229 -625.868 0.631549 0.696794 0.340035
-14.1494 -183.58 -625.152 0.597599 0.707791 0.376705
-13.6494 -183.58 -625.104 -0.642141 -0.709112 -0.29123
-14.6494 -183.08 -624.889 0.589924 0.718019 0.369375
-15.1494 -182.58 -624.815 0.593508 0.723197 0.353177
-15.6494 -182.08 -624.84 -0.624391 -0.693579 -0.359283
-17.0797 -181.396 -625.077 -0.65857 -0.641765 -0.392969
-16.6494 -181.08 -625.156 -0.650918 -0.654527 -0.384579
-17.1494 -180.58 -624.975 -0.65229 -0.638851 -0.407906
-17.6494 -180.08 -624.792 -0.659016 -0.644891 -0.387057
-17.8231 -180.08 -624.707 -0.649003 -0.64138 -0.409179
-27.5642 -172.141 -624.481 0.731578 0.672633 -0.111173
-39.3444 -166.652 -625.674 -0.733028 -0.402483 -0.54834
-36.8731 -144.433 -624.59 0.833687 -0.0762017 -0.546954
-48.6494 -138.58 -624.778 -0.627445 -0.158918 -0.762272
-48.6494 -138.796 -624.707 -0.646846 -0.136525 -0.750301
-48.6494 -138.08 -624.868 -0.618356 -0.167321 -0.76788
-48.7446 -137.58 -624.707 -0.608656 -0.1773 -0.773371
-49.1494 -135.58 -624.746 0.490313 -0.149109 -0.858697
-49.1494 -135.645 -624.707 0.490313 -0.149109 -0.858697
-49.1494 -135.08 -625.043 0.722892 -0.052254 -0.688982
-49.6494 -134.58 -624.777 0.755263 -0.0323167 -0.654625
-49.6494 -134.08 -624.746 0.754676 -0.0297102 -0.655424
-50.1197 -121.08 -624.707 -0.884045 -0.0538662 -0.464288
-49.9579 -120.58 -625.207 -0.883771 -0.0625317 -0.463723
-49.959 -120.08 -625.207 -0.883457 -0.0431708 -0.466519
-39.5716 -86.8431 -624.515 -0.845021 0.49107 0.211636
2.42589 -76.8004 -623.878 0.45946 -0.696314 0.551401
-23.1545 -60.3852 -626.442 -0.76007 0.476503 0.441858
9.70541 -5.20918 -627.039 -0.797833 0.596287 -0.0888995
170.449 10.44 -626.662 0.635104 -0.109857 -0.764574
173.851 9.42003 -625.206 0.943596 0.0229408 -0.330304
174.121 9.42003 -624.707 0.984517 0.0202418 -0.174118
173.351 19.3356 -625.207 0.973062 0.141769 -0.181803
173.351 18.9233 -624.707 0.968907 0.15828 -0.190174
173.321 19.42 -625.207 0.973062 0.141769 -0.181803
173.175 19.92 -625.207 0.974215 0.141012 -0.176129
172.054 21.1345 -622.819 0.968218 0.230502 0.0970742
173.023 20.42 -625.207 0.978499 0.183485 -0.0941935
172.916 20.42 -624.707 0.97855 0.192438 -0.0735399
172.851 20.92 -625.134 0.978872 0.187604 -0.0813311
172.18 23.4795 -626.048 0.964303 0.184166 -0.19027
155.102 51.285 -627.598 0.435002 0.495641 0.75174
155.935 48.2982 -625.631 0.385828 0.543167 0.745726
-12.4941 -191.08 -624.207 0.210402 -0.917595 0.337269
-12.1494 -191.08 -624.317 0.376924 -0.914695 0.145813
-11.6494 -191.08 -624.334 0.376924 -0.914695 0.145813
-11.1494 -191.08 -624.369 0.376924 -0.914695 0.145813
-10.6494 -191.08 -624.412 0.336903 -0.939788 0.0574042
-10.1494 -191.08 -624.318 0.410209 -0.7801 0.472412
-9.1494 -188.08 -624.399 0.920216 0.348664 0.177866
-9.1494 -188.408 -624.207 0.933634 0.285936 0.215795
-11.1076 -186.08 -624.207 0.66132 0.673776 0.329668
-18.1494 -179.58 -624.639 -0.657349 -0.621893 -0.425607
-18.6494 -179.08 -624.345 -0.659591 -0.616978 -0.429275
-19.1494 -178.58 -624.329 -0.6219 -0.611551 -0.489128
-19.4317 -178.58 -624.207 -0.615522 -0.612542 -0.495908
-19.6494 -178.08 -624.391 -0.594555 -0.648212 -0.475736
-19.932 -178.08 -624.207 -0.59083 -0.641082 -0.489831
-20.1879 -178.464 -623.938 -0.595468 -0.646839 -0.476463
-20.1494 -177.58 -624.226 -0.618759 -0.613956 -0.490097
-20.1845 -177.58 -624.207 -0.618759 -0.613956 -0.490097
-35.3537 -175.584 -624.343 -0.377133 -0.270651 -0.885731
-35.7674 -159.257 -624.796 0.837028 0.316911 -0.446039
-45.7356 -153.166 -624.542 -0.718865 -0.188269 -0.669169
-47.5621 -142.616 -625.069 -0.631876 -0.140989 -0.762138
-48.6494 -140.58 -624.395 -0.636543 -0.140387 -0.758356
-48.6494 -141.004 -624.207 -0.634387 -0.142747 -0.759722
-48.6494 -140.08 -624.491 -0.63319 -0.13537 -0.762066
-48.9103 -140.08 -624.207 -0.763155 -0.132493 -0.632487
-48.3785 -139.46 -624.807 -0.625496 -0.128509 -0.769572
-49.0584 -138.58 -624.207 -0.732827 -0.162289 -0.660778
-49.1494 -137.08 -624.426 -0.54055 -0.267075 -0.797795
-49.1494 -137.58 -624.274 -0.760069 -0.20296 -0.617335
-49.1494 -136.58 -624.407 -0.54055 -0.267075 -0.797795
-49.1494 -136.08 -624.422 -0.393857 -0.304643 -0.86722
-33.6517 -126.07 -625.144 0.870143 -0.0633086 -0.488716
-50.391 -124.58 -624.207 -0.921965 -0.0436382 -0.384806
-50.2399 -124.08 -624.707 -0.896318 -0.0422883 -0.441391
-50.2066 -123.58 -624.707 -0.903188 -0.0188902 -0.428829
-50.1793 -123.08 -624.707 -0.905204 -0.0209483 -0.424461
-50.1523 -122.58 -624.707 -0.908296 -0.0233873 -0.417675
-50.1494 -122.523 -624.707 -0.908296 -0.0233873 -0.417675
-50.1277 -122.08 -624.707 -0.876187 -0.0310324 -0.480971
-50.1179 -121.58 -624.707 -0.880067 -0.0498629 -0.472224
-50.5087 -120.831 -623.106 -0.990544 0.136594 0.0128574
-22.8993 -103.347 -625.83 0.869788 -0.483462 -0.0986599
-11.2939 -89.8773 -625.514 0.673438 -0.704937 0.222589
-2.91454 -79.8525 -623.17 0.509726 -0.608622 0.608078
-30.6997 -71.1456 -625.651 -0.7805 0.494985 0.38185
-15.4978 -49.7079 -626.665 -0.774638 0.523973 0.354103
57.7563 -43.9285 -623.752 0.453799 -0.765778 0.455686
69.6478 -29.5794 -618.206 0.499428 -0.493157 0.712298
71.5327 -33.0263 -621.904 0.5385 -0.603666 0.587882
88.0957 -8.99891 -622.48 0.60552 -0.389411 0.69405
93.6291 -2.99591 -623.374 0.591436 -0.476167 0.650745
168.471 4.12562 -625.464 -0.530542 -0.142673 -0.835565
174.168 5.92003 -624.207 0.944423 -0.0574241 -0.323679
174.125 6.42003 -624.207 0.939393 -0.0602758 -0.337501
174.073 8.92003 -624.207 0.98471 0.0313674 -0.171352
164.334 10.7222 -624.934 -0.934692 -0.139269 -0.327039
163.158 12.1982 -623.895 0.34548 0.487118 0.802097
173.851 16.42 -624.417 0.965598 0.192221 -0.175135
174 15.92 -624.207 0.976429 0.18082 -0.117862
173.851 16.6547 -624.707 0.967343 0.19201 -0.165467
173.787 16.92 -624.707 0.969704 0.181427 -0.163579
173.688 17.42 -624.707 0.972194 0.194962 -0.129729
173.574 17.92 -624.707 0.97575 0.178527 -0.126646
173.447 17.92 -624.207 0.974568 0.189767 -0.119186
173.351 18.42 -624.313 0.979252 0.16362 -0.119554
173.351 18.92 -624.705 0.968907 0.15828 -0.190174
173.252 18.6364 -624.207 0.982085 0.160275 -0.0990976
124.429 17.759 -625.989 0.155396 -0.612027 0.775419
161.485 20.961 -625.085 0.0516349 0.187231 0.980958
151.722 23.3385 -622.573 -0.00745755 -0.675721 0.737119
81.6191 36.4892 -628.338 -0.160852 0.949168 0.270566
135.823 33.8323 -622.643 -0.355869 0.340535 0.870283
137.85 37.8674 -624.374 -0.377053 0.520545 0.76607
158.045 49.7695 -624.579 0.484665 0.552763 0.677903
-12.1494 -191.29 -623.707 0.19834 -0.865124 0.460675
-10.6494 -191.21 -623.707 0.410209 -0.7801 0.472412
-10.1494 -191.08 -623.75 0.410209 -0.7801 0.472412
-11.4236 -190.334 -622.854 0.331152 -0.474404 0.815646
-9.6494 -191.08 -624.13 0.473734 -0.776469 0.415538
-9.58161 -191.08 -624.207 0.520659 -0.686484 0.507596
-9.1494 -190.58 -623.952 0.725124 -0.44523 0.525324
-9.1494 -190.815 -624.207 0.656483 -0.607051 0.447794
-8.6494 -190.08 -624.041 0.903024 -0.293938 0.313285
-8.6494 -190.58 -624.089 0.803592 -0.455341 0.383282
-9.1494 -189.678 -623.707 0.912113 -0.244891 0.328751
-9.1494 -189.08 -623.818 0.962031 -0.101938 0.25319
-9.1494 -189.548 -623.707 0.912113 -0.244891 0.328751
-9.61553 -189.058 -623.685 0.768612 -0.0350315 0.638755
-9.1494 -188.58 -624.076 0.951053 0.216496 0.220518
-19.789 -188.458 -621.618 0.339076 0.0273473 0.940361
-11.1494 -186.08 -624.166 0.66132 0.673776 0.329668
-11.6494 -185.58 -624.064 0.632655 0.674303 0.38087
-12.1494 -185.08 -624.084 0.627765 0.677326 0.383589
-12.6494 -184.58 -624.055 0.606181 0.728086 0.320055
-13.6494 -184.08 -624.059 0.603307 0.715316 0.352623
-13.1494 -184.08 -624.039 0.620251 0.731883 0.2822
-14.1494 -183.58 -624.034 0.597904 0.705032 0.381365
-14.6494 -183.08 -624.036 0.590956 0.724757 0.354257
-16.2396 -182.902 -623.633 0.596667 0.696014 0.399441
-15.1494 -182.58 -624.068 0.579615 0.71715 0.386965
-16.6494 -182.08 -623.854 0.637346 0.679324 0.363743
-16.3007 -182.08 -623.707 0.62644 0.682638 0.376268
-15.6494 -182.08 -624.103 0.60154 0.69781 0.388858
-16.0912 -182.08 -623.707 0.62381 0.679422 0.386324
-18.3351 -181.009 -623.217 0.65355 0.628246 0.422114
-16.6494 -181.58 -623.809 0.646323 0.663236 0.377339
-17.1494 -181.091 -623.707 0.642552 0.660312 0.388736
-19.3131 -179.625 -624.054 -0.614011 -0.618705 -0.490096
-20.6494 -177.58 -623.932 -0.633359 -0.605736 -0.481602
-21.1494 -177.08 -623.964 -0.649084 -0.596068 -0.472645
-21.6494 -176.58 -623.967 -0.663698 -0.593577 -0.455161
-22.1494 -176.08 -623.837 -0.678332 -0.599722 -0.424498
-22.3801 -176.926 -623.846 -0.66554 -0.592131 -0.454354
-22.6494 -175.58 -623.744 -0.690235 -0.609424 -0.3901
-22.8212 -175.58 -623.707 -0.70236 -0.604113 -0.376481
-24.9985 -174.103 -623.614 0.724831 0.667376 0.170966
-39.6358 -170.343 -623.217 -0.84832 -0.465623 -0.252087
-29.2398 -169.807 -624.3 0.828608 0.555789 -0.0671269
-44.9814 -157.44 -623.997 -0.741814 -0.306918 -0.59625
-46.1494 -153.953 -623.707 -0.824294 -0.206289 -0.527241
-46.6494 -151.58 -623.775 -0.798619 -0.205384 -0.565707
-46.6494 -151.742 -623.707 -0.799462 -0.204244 -0.564929
-46.6494 -151.08 -623.92 -0.799576 -0.207538 -0.563566
-46.8368 -151.08 -623.707 -0.799576 -0.207538 -0.563566
-47.1496 -149.58 -623.707 -0.779456 -0.210168 -0.59015
-47.1494 -149.581 -623.707 -0.779456 -0.210168 -0.59015
-46.4917 -149.777 -624.257 -0.79315 -0.208759 -0.57213
-47.3607 -147.185 -624.313 -0.616439 -0.15652 -0.771689
-47.6494 -148.08 -623.765 -0.775051 -0.204501 -0.597892
-47.6494 -148.308 -623.707 -0.775051 -0.204501 -0.597892
-47.6494 -147.58 -623.836 -0.622449 -0.167666 -0.764491
-47.6494 -147.08 -623.929 -0.616439 -0.15652 -0.771689
-47.9099 -146.58 -623.707 -0.624577 -0.15672 -0.765077
-48.1494 -145.58 -624.006 -0.729232 -0.161875 -0.664844
-48.1494 -146.057 -623.707 -0.622678 -0.151111 -0.767749
-48.3821 -145.08 -623.707 -0.757642 -0.159547 -0.632869
-48.6494 -143.08 -623.835 -0.758507 -0.144266 -0.635495
-48.6494 -143.478 -623.707 -0.759146 -0.149706 -0.633471
-48.6494 -142.58 -623.778 -0.761099 -0.143558 -0.63255
-48.6494 -142.08 -623.861 -0.771303 -0.138832 -0.621142
-48.6494 -141.58 -623.984 -0.768549 -0.135973 -0.625175
-48.6494 -141.08 -624.171 -0.634994 -0.139489 -0.759819
-49.1494 -139.58 -623.976 -0.763155 -0.132493 -0.632487
-49.1494 -140.08 -623.938 -0.763155 -0.132493 -0.632487
-49.1494 -139.08 -623.959 -0.761887 -0.133474 -0.633808
-49.1494 -138.58 -624.058 -0.732827 -0.162289 -0.660778
-49.1494 -138.195 -624.207 -0.693758 -0.179088 -0.697587
-35.5204 -137.471 -622.991 0.999318 -0.018751 -0.0318129
-50.4453 -125.58 -623.707 -0.959085 -0.0316062 -0.281347
-50.4105 -125.08 -624.207 -0.932829 -0.0241537 -0.359508
-18.1293 -58.669 -621.615 -0.55435 0.415083 0.721388
61.1166 -40.1505 -622.303 0.440982 -0.70774 0.551941
169.556 -4.41453 -623.229 -0.115655 -0.184603 -0.975984
172.629 3.9167 -624.825 0.418272 -0.140516 -0.897387
173.851 3.34149 -623.707 0.960765 -0.0638323 -0.269917
173.851 3.42003 -623.736 0.956166 -0.0659339 -0.285306
173.851 3.92003 -623.894 0.956228 -0.0668195 -0.284891
174.051 4.42003 -623.707 0.962938 -0.0607839 -0.262786
174.351 4.75255 -623.707 0.964664 -0.0677755 -0.254617
174.351 4.92003 -623.813 0.964445 -0.073518 -0.253852
173.851 5.42003 -624.197 0.961236 -0.0698391 -0.266736
174.351 5.42003 -624.019 0.962842 -0.0688259 -0.261148
166.106 6.58615 -624.449 -0.968887 -0.227512 0.0974491
174.32 6.92003 -623.707 0.991197 0.0354746 -0.127556
173.958 7.64447 -624.76 0.974757 -0.0130098 -0.222891
164.765 8.42003 -623.707 -0.959039 -0.275222 0.0670568
174.139 8.42003 -623.707 0.986881 0.0417926 -0.155946
164.381 8.92003 -623.707 -0.949447 -0.307822 0.0616119
164.351 9.42003 -623.941 -0.949447 -0.307822 0.0616119
164.351 8.94746 -623.707 -0.949447 -0.307822 0.0616119
163.851 9.92003 -623.846 -0.955278 -0.198741 0.218966
163.851 10.3131 -623.707 -0.864654 -0.0878034 0.494636
33.7068 14.6642 -621.909 -0.472367 0.714126 0.516618
174.351 14.92 -623.96 0.981896 0.122021 -0.144885
174.351 14.5663 -623.707 0.986286 0.0857309 -0.141033
174.351 15.2096 -624.207 0.978281 0.129593 -0.16178
174.246 15.42 -624.207 0.974208 0.142086 -0.175301
115.538 28.6038 -622.823 -0.0241265 0.537788 0.842735
124.959 29.2909 -622.788 -0.10646 0.432968 0.895101
124.474 33.2691 -624.487 -0.142713 0.611766 0.778059
160.718 45.102 -622.321 0.570624 0.392953 0.721094
160.015 50.0251 -624.977 0.606206 0.470754 0.641019
-11.6494 -191.326 -623.707 0.376924 -0.914695 0.145813
-11.1494 -191.321 -623.707 0.376924 -0.914695 0.145813
-15.654 -190.164 -623.213 0.0290073 0.113942 0.993064
-9.1494 -189.58 -623.697 0.912113 -0.244891 0.328751
-12.8886 -185.618 -623.777 0.60108 0.73091 0.323224
-16.1494 -182.08 -623.649 0.62644 0.682638 0.376268
-17.1494 -181.08 -623.704 0.642552 0.660312 0.388736
-17.6494 -180.58 -623.555 0.65001 0.636955 0.414459
-18.1494 -180.08 -623.25 0.656508 0.635019 0.407121
-18.1939 -180.08 -623.207 0.659476 0.633855 0.404128
-23.1494 -175.08 -623.581 -0.727772 -0.596481 -0.338463
-23.6494 -174.58 -623.483 -0.73747 -0.600992 -0.308135
-24.1494 -174.08 -623.383 0.7356 0.606948 0.300844
-24.1494 -173.58 -623.452 -0.724283 -0.606819 -0.32739
-24.6494 -173.08 -623.4 -0.723818 -0.61542 -0.312002
-25.1298 -173.08 -623.207 0.740797 0.653534 0.155283
-25.1494 -172.58 -623.242 0.741602 0.663671 0.0978154
-25.289 -172.58 -623.207 -0.741602 -0.663671 -0.0978154
-27.1494 -171.08 -623.339 0.749387 0.658612 -0.0681935
-26.7383 -171.08 -623.207 0.739028 0.671818 -0.0499858
-27.1494 -170.58 -623.247 0.785544 0.613062 -0.0841158
-27.6494 -170.124 -623.207 0.811035 0.574252 -0.111606
-27.1494 -170.452 -623.207 0.785544 0.613062 -0.0841158
-32.6304 -161.977 -623.044 0.935547 0.346576 0.0680951
-45.6494 -157.08 -623.292 -0.753197 -0.297935 -0.586454
-45.6494 -157.37 -623.207 -0.752836 -0.301679 -0.585002
-45.6494 -156.58 -623.43 -0.762444 -0.274981 -0.585717
-45.6494 -156.08 -623.675 -0.770725 -0.243226 -0.588918
-45.8254 -156.08 -623.207 -0.774922 -0.256979 -0.577458
-45.9266 -155.58 -623.207 -0.759964 -0.228335 -0.608538
-46.1494 -154.58 -623.431 -0.82379 -0.203381 -0.529156
-46.1494 -154.872 -623.207 -0.834821 -0.210474 -0.508698
-46.1494 -154.08 -623.66 -0.822823 -0.203557 -0.530591
-46.5451 -153.58 -623.207 -0.828503 -0.204453 -0.521328
-46.6494 -153.205 -623.207 -0.809288 -0.19775 -0.553126
-46.6841 -153.08 -623.207 -0.808892 -0.198203 -0.553542
-46.6494 -152.08 -623.572 -0.800559 -0.205645 -0.562863
-46.6595 -152.648 -623.376 -0.808892 -0.198203 -0.553542
-46.9944 -151.58 -623.207 -0.798619 -0.205384 -0.565707
-47.1494 -151.08 -623.25 -0.799576 -0.207538 -0.563566
-47.1494 -151.139 -623.207 -0.799576 -0.207538 -0.563566
-47.1494 -150.58 -623.449 -0.792306 -0.210237 -0.572758
-47.1494 -150.08 -623.521 -0.791973 -0.209783 -0.573385
-47.6494 -149.08 -623.383 -0.773609 -0.213095 -0.596758
-47.6494 -148.58 -623.616 -0.767855 -0.209942 -0.605247
-47.8362 -148.58 -623.207 -0.767855 -0.209942 -0.605247
-47.9163 -148.08 -623.207 -0.783233 -0.201389 -0.588208
-35.8988 -144.811 -623.193 0.989042 -0.0638316 -0.133124
-48.1494 -146.08 -623.689 -0.622678 -0.151111 -0.767749
-48.1494 -146.58 -623.486 -0.739973 -0.174437 -0.649625
-48.6494 -144.58 -623.275 -0.770079 -0.156167 -0.618539
-48.6494 -144.08 -623.401 -0.769769 -0.155146 -0.619181
-48.6494 -143.58 -623.645 -0.760556 -0.149932 -0.631724
-35.761 -140.589 -623.591 0.999323 -0.00907462 -0.0356598
-50.4751 -126.08 -623.707 -0.962658 -0.00257875 -0.270707
-50.4913 -126.08 -623.207 -0.969898 -0.0385128 -0.240448
-49.1826 -111.894 -623.161 -0.992243 0.119948 0.032662
-7.94245 -82.5321 -621.814 0.397872 -0.5581 0.728164
-35.7837 -79.5077 -623.762 -0.794247 0.462103 0.394503
-21.3132 -62.4721 -621.649 -0.590123 0.436767 0.678963
87.9117 -14.2164 -625.101 0.720996 -0.484106 0.495788
11.2233 -7.20517 -620.66 -0.823951 0.531977 -0.195205
12.6801 -2.36157 -624.459 -0.629186 0.777218 0.00762834
172.062 -2.26706 -623.248 0.497974 -0.289615 -0.817401
173.774 0.483226 -622.733 0.934264 -0.121034 -0.335413
173.851 1.92003 -623.267 0.964203 -0.0743351 -0.254531
173.958 1.92003 -623.207 0.964203 -0.0743351 -0.254531
173.851 2.42003 -623.408 0.965057 -0.070674 -0.252329
173.851 2.92003 -623.559 0.963456 -0.0635576 -0.260216
174.351 4.42003 -623.515 0.964434 -0.0671445 -0.255652
174.351 6.92003 -623.6 0.99222 0.0347602 -0.119546
174.351 7.24226 -623.207 0.992115 0.0526815 -0.113722
174.308 7.42003 -623.207 0.992115 0.0526815 -0.113722
26.8306 8.25431 -620.447 -0.499315 0.670712 0.548479
164.652 7.92003 -623.207 -0.953596 -0.274583 0.12353
174.19 7.92003 -623.207 0.992732 0.0537778 -0.107666
164.351 9.42003 -623.519 -0.949447 -0.307822 0.0616119
164.653 9.42003 -623.207 -0.949447 -0.307822 0.0616119
163.851 9.92003 -623.568 -0.955278 -0.198741 0.218966
174.351 14.42 -623.578 0.989151 0.0750657 -0.126273
174.351 13.9602 -623.207 0.997393 0.0581372 -0.0427357
106.757 18.1337 -621.168 0.484596 -0.181594 0.855681
154.782 24.8114 -621.051 0.0607658 -0.387689 0.919785
106.831 30.2391 -624.963 0.170393 0.670517 0.722061
67.4272 29.347 -623.653 -0.527303 0.84946 0.0192382
119.879 33.3743 -626.397 -0.0903263 0.730662 0.676738
75.9734 29.5051 -620.816 -0.286533 0.94361 -0.165828
164.715 34.5495 -623.458 0.619439 0.107172 0.777695
-14.2476 -188.043 -622 0.282618 0.118052 0.95194
-18.6494 -180.08 -623.036 0.637687 0.623919 0.451753
-19.6494 -179.8 -622.707 0.607028 0.61864 0.498799
-19.1494 -179.769 -622.707 0.607028 0.61864 0.498799
-20.1494 -178.58 -623.005 0.59947 0.64017 0.480435
-20.1494 -178.915 -622.707 0.623129 0.601395 0.500034
-20.4914 -178.58 -622.707 0.59947 0.64017 0.480435
-25.6494 -172.58 -623.113 0.74763 0.658642 0.0850934
-26.1494 -172.08 -623.198 0.750998 0.659743 0.0272274
-26.6494 -171.58 -623.1 0.760061 0.649577 0.0189164
-26.6494 -171.08 -623.19 0.739028 0.671818 -0.0499858
-27.6494 -170.08 -623.182 0.811035 0.574252 -0.111606
-28.1494 -169.58 -622.974 0.819366 0.572468 0.030326
-28.1494 -169.08 -623.035 0.833225 0.550849 0.047963
-28.6494 -168.58 -622.83 0.853153 0.510503 0.107312
-28.8953 -168.08 -622.707 0.876516 0.470814 0.100264
-28.6494 -168.274 -622.707 0.853035 0.510664 0.10749
-29.1494 -167.937 -622.707 0.87327 0.471814 0.121617
-31.5086 -165.019 -623.093 0.885984 0.446542 0.125029
-43.2742 -161.967 -624.037 -0.724534 -0.468998 -0.505066
-32.0134 -161.58 -622.707 0.93582 0.346024 0.0671382
-32.1494 -161.401 -622.707 0.934358 0.347512 0.0788067
-45.2054 -159.48 -622.578 -0.854294 -0.365393 -0.369689
-45.6494 -158.08 -622.814 -0.905819 -0.271846 -0.324948
-45.6494 -158.192 -622.707 -0.908076 -0.280353 -0.311128
-45.6494 -157.58 -623.114 -0.910368 -0.263372 -0.319164
-46.1494 -155.08 -623.073 -0.842447 -0.214487 -0.494245
-47.0436 -152.58 -622.707 -0.801995 -0.203143 -0.561727
-47.1494 -152.08 -622.783 -0.799462 -0.204244 -0.564929
-47.1494 -152.22 -622.707 -0.800167 -0.202792 -0.564455
-47.1494 -151.58 -623 -0.798619 -0.205384 -0.565707
-36.917 -149.392 -623.956 0.992493 0.120413 -0.0214167
-35.1494 -135.286 -622.707 0.993545 -0.0131088 0.11268
-34.8427 -132.388 -623.712 0.997492 0.0481789 -0.0518471
-50.5645 -126.58 -622.707 -0.993493 0.0370524 -0.107695
-50.553 -122.932 -621.552 -0.965461 0.166648 0.200282
-30.1822 -117.692 -623.014 0.910825 -0.384879 -0.14922
-26.2918 -65.4857 -624.608 -0.737628 0.499494 0.454324
29.5303 -58.2365 -623.45 0.359419 -0.736631 0.572881
68.0618 -32.3236 -618.873 0.460983 -0.55545 0.692077
81.8077 -15.758 -620.127 0.582258 -0.353 0.73237
174.351 1.30241 -622.707 0.967024 -0.0764664 -0.242936
174.351 1.42003 -622.748 0.967024 -0.0764664 -0.242936
174.351 1.92003 -622.935 0.964203 -0.0743351 -0.254531
98.0223 0.635904 -623.213 0.567146 -0.510667 0.646192
165.748 3.92003 -622.707 -0.960265 -0.0910821 0.26381
165.655 4.42003 -622.707 -0.976817 -0.117226 0.179129
165.216 6.42003 -622.707 -0.97388 -0.216901 0.0671697
165.351 6.03685 -622.707 -0.971955 -0.209833 0.106174
164.868 6.92003 -622.707 -0.970171 -0.228328 0.0814577
164.851 7.42003 -623.132 -0.970432 -0.213218 0.113136
164.851 6.95624 -622.707 -0.970171 -0.228328 0.0814577
164.851 8.92003 -622.736 -0.959039 -0.275222 0.0670568
164.851 8.86966 -622.707 -0.959039 -0.275222 0.0670568
164.851 9.42003 -622.744 -0.949447 -0.307822 0.0616119
174.351 13.42 -622.867 0.993546 -0.023139 -0.111042
174.402 12.92 -622.707 0.992798 -0.0412527 -0.112472
174.351 13.92 -623.181 0.997393 0.0581372 -0.0427357
173.156 16.8076 -622.614 0.90025 0.320657 0.294498
164.494 13.885 -623.266 -0.680786 0.00145793 0.732481
113.499 16.8168 -624.304 0.503987 -0.373058 0.77899
165.665 17.7868 -621.008 -0.085682 0.0976176 0.991529
161.779 24.8112 -623.167 0.221664 -0.400985 0.888862
125.395 23.5534 -621.853 -0.0278337 -0.334868 0.941854
169.321 28.1638 -623.481 0.605458 0.396196 0.690253
117.722 30.1085 -623.341 -0.085834 0.581938 0.80869
-19.6494 -179.58 -622.592 0.612841 0.614771 0.496471
-20.1494 -179.08 -622.512 0.61878 0.602449 0.50415
-20.6494 -178.58 -622.549 0.596708 0.635091 0.490508
-21.1494 -178.08 -622.535 0.654581 0.600802 0.458869
-21.6494 -177.58 -622.505 0.656787 0.593316 0.465411
-22.1494 -177.08 -622.399 0.678967 0.591142 0.43538
-22.1494 -176.58 -622.619 0.678967 0.591142 0.43538
-22.6494 -176.08 -622.521 0.692776 0.589756 0.41503
-23.1494 -175.58 -622.356 0.729474 0.593294 0.340398
-23.6494 -175.08 -622.293 0.74105 0.591821 0.317163
-23.7448 -175.08 -622.207 0.73379 0.591273 0.334585
-29.1494 -167.58 -622.573 0.883371 0.452034 0.123775
-29.6494 -167.08 -622.42 0.837661 0.501853 0.215563
-29.6494 -166.58 -622.284 0.844857 0.498984 0.192956
-30.1494 -166.08 -622.309 0.851635 0.477732 0.215617
-30.2447 -165.58 -622.207 0.857098 0.481008 0.184432
-30.1494 -165.764 -622.207 0.854821 0.486969 0.179281
-30.6494 -165.198 -622.207 0.877293 0.447579 0.173289
-30.947 -164.58 -622.207 0.891709 0.42374 0.159059
-31.1494 -164.335 -622.207 0.892917 0.439683 0.0968448
-31.6494 -163.58 -622.404 0.911513 0.39935 0.0983029
-31.3245 -163.58 -622.207 0.911513 0.39935 0.0983029
-31.6494 -163.08 -622.274 0.923001 0.375135 0.0856942
-31.6494 -162.58 -622.396 0.934322 0.350467 0.064927
-32.1494 -162.08 -622.655 0.933065 0.352742 0.0704402
-32.1494 -161.08 -622.445 0.93496 0.33448 0.118207
-32.6494 -160.58 -622.472 0.92505 0.377315 0.0437738
-32.6494 -160.08 -622.387 0.92963 0.366704 0.0362676
-33.1494 -159.58 -622.386 0.931592 0.360938 0.0431176
-33.1494 -159.08 -622.275 0.920346 0.387955 0.0495317
-45.6494 -158.58 -622.32 -0.888431 -0.31064 -0.337925
-45.6494 -158.69 -622.207 -0.955673 -0.250217 -0.155179
-33.6494 -158.58 -622.663 -0.929339 -0.367443 -0.0362625
-33.3188 -158.58 -622.207 0.930111 0.36449 0.0451696
-33.1494 -158.948 -622.207 0.923807 0.38012 0.0456995
-33.6494 -158.08 -622.422 0.942479 0.331793 0.0405786
-33.6494 -157.627 -622.207 0.954735 0.294967 0.0384046
-34.1238 -158.543 -623.204 0.91348 0.30309 -0.271461
-34.1494 -157.08 -622.63 0.963168 0.262482 0.0584003
-33.7732 -157.08 -622.207 0.959758 0.270087 0.0769306
-34.1494 -156.58 -622.399 0.961927 0.257372 0.0919527
-34.1494 -156.236 -622.207 0.967226 0.232534 0.10199
-35.9971 -155.029 -624.042 0.780381 0.25132 -0.572576
-34.6494 -154.872 -622.207 0.982105 0.185767 -0.0309902
-34.9511 -151.08 -622.207 0.976615 0.212512 -0.0325879
-35.1494 -150.749 -622.207 0.977649 0.208997 -0.0228543
-35.3936 -148.58 -622.207 0.995188 0.0921211 -0.0333754
-35.5684 -148.08 -622.207 0.997926 0.0567967 -0.0302895
-35.5189 -145.58 -622.207 0.993894 -0.0260365 -0.107225
-35.5461 -145.08 -622.207 0.989712 -0.0602618 -0.12976
-35.1494 -140.788 -622.207 0.999816 -0.0120537 -0.0149203
-35.1494 -140.58 -622.258 0.999816 -0.0120537 -0.0149203
-35.1494 -140.419 -622.207 0.999747 -0.0173442 -0.0143561
-35.1494 -135.951 -622.207 0.99923 -0.02532 -0.02998
-35.1494 -135.58 -622.577 0.998346 -0.0474367 -0.0324793
-34.9831 -135.08 -622.207 0.993545 -0.0131088 0.11268
-34.796 -132.609 -621.731 0.997492 0.0481789 -0.0518471
-50.6374 -127.08 -622.207 -0.984795 0.173529 0.00819442
-28.2597 -112.389 -623.609 0.865418 -0.487241 -0.116822
-46.8524 -103.985 -622.948 -0.911242 0.316062 0.264088
-11.4614 -87.0033 -623.08 0.573823 -0.600285 0.557123
34.13 -53.5394 -620.688 0.296868 -0.761819 0.575762
38.3384 -53.3732 -622.436 0.333118 -0.790383 0.514128
174.159 -0.079971 -622.207 0.982193 -0.108652 -0.153269
174.351 0.083954 -622.207 0.981284 -0.11594 -0.153749
174.351 0.420029 -622.404 0.976149 -0.123451 -0.178586
174.351 0.920029 -622.583 0.942718 -0.123208 -0.310004
16.5897 1.64585 -623.797 -0.662393 0.729054 0.172384
166.126 0.878426 -622.67 -0.978438 0.0653429 0.195933
165.836 2.42003 -622.207 -0.975236 -0.00424035 0.221127
165.851 2.00099 -622.207 -0.976535 0.0102112 0.215117
165.826 2.92003 -622.207 -0.968102 -0.0575055 0.243867
165.745 3.42003 -622.207 -0.962472 -0.0841161 0.258016
165.514 4.92003 -622.207 -0.968162 -0.121243 0.219004
165.398 5.42003 -622.207 -0.967165 -0.154008 0.20217
165.351 5.92003 -622.65 -0.961027 -0.178913 0.210752
165.351 5.48621 -622.207 -0.967165 -0.154008 0.20217
164.851 7.92003 -622.376 -0.90235 -0.0954637 0.420299
164.851 8.42003 -622.59 -0.953596 -0.274583 0.12353
165.032 9.67438 -622.558 -0.828865 -0.0522401 0.557004
165.137 7.92003 -622.207 -0.903999 -0.0778956 0.420379
31.2969 12.898 -622.089 -0.505547 0.711952 0.487388
174.351 12.42 -622.373 0.993767 -0.0405026 -0.103857
174.351 12.0957 -622.207 0.994067 -0.0448789 -0.0990792
35.1266 18.8669 -628.261 -0.470447 0.845113 0.253898
120.222 21.1754 -622.496 0.0931293 -0.354334 0.93047
61.3506 23.7707 -622.707 -0.304393 0.947672 0.0962458
61.3506 23.92 -622.603 0.304393 -0.947672 -0.0962458
61.2057 23.92 -622.707 0.304393 -0.947672 -0.0962458
61.3506 24.0224 -622.707 0.304393 -0.947672 -0.0962458
63.9223 24.6601 -620.306 -0.289118 0.94538 -0.150557
100.942 34.3156 -626.919 0.145397 0.910037 0.38819
162.655 32.8498 -622.074 0.520257 -0.00826123 0.85397
140.268 38.9893 -621.254 -0.358305 0.431573 0.827866
-22.9301 -186.564 -620.883 0.362132 -0.0437306 0.9311
-21.2495 -179.001 -622.399 0.621513 0.620466 0.478272
-24.1494 -175.08 -621.994 0.73379 0.591273 0.334585
-24.1494 -174.58 -622.006 0.739572 0.596576 0.311657
-24.6494 -174.08 -621.988 0.721634 0.61298 0.321714
-24.6494 -173.58 -622.165 0.725968 0.607467 0.32242
-25.1494 -173.08 -622.054 0.726573 0.614488 0.307404
-25.6494 -172.58 -622.007 0.751442 0.656453 0.0663639
-26.1494 -172.08 -621.998 0.750006 0.661136 0.0197499
-26.6494 -171.58 -621.954 0.753031 0.655305 0.059322
-27.1494 -171.08 -621.922 0.783155 0.620995 0.0321288
-26.5168 -172.688 -621.672 0.758119 0.649788 0.055053
-27.6494 -170.58 -621.914 0.80356 0.593943 0.0390369
-27.6494 -170.08 -622.008 0.799144 0.601115 0.0054443
-28.1494 -169.698 -621.707 0.818053 0.524831 0.235247
-28.6494 -168.58 -622.084 0.846088 0.524844 0.0931319
-28.6494 -168.894 -621.707 0.846088 0.524844 0.0931319
-28.9349 -168.58 -621.707 0.85401 0.508608 0.109475
-30.6494 -165.08 -622.133 0.877293 0.447579 0.173289
-31.1494 -164.08 -622.107 0.907061 0.412247 0.0854017
-44.8351 -161.08 -621.707 -0.882348 -0.426182 -0.199576
-44.6494 -161.477 -621.707 -0.880169 -0.433929 -0.192376
-45.2517 -160.08 -621.707 -0.896841 -0.36538 -0.249345
-45.1494 -160.302 -621.707 0.908876 0.37601 0.180444
-45.6494 -159.041 -621.707 -0.962609 -0.247484 -0.110158
-33.1494 -158.58 -622.122 0.930111 0.36449 0.0451696
-33.6494 -157.58 -622.182 0.954788 0.290822 0.0616623
-34.1494 -156.08 -622.114 0.967996 0.230373 0.0995557
-34.1494 -155.58 -621.761 0.976076 0.183867 0.116053
-34.1494 -155.48 -621.707 0.975324 0.17833 0.130158
-34.2871 -155.08 -621.707 0.980141 0.165755 0.10885
-34.6494 -154.58 -622.127 0.991136 0.129732 -0.0286128
-34.6494 -154.08 -622.093 0.990105 0.139365 -0.0164011
-34.6494 -153.58 -622.11 0.990519 0.135292 -0.023822
-34.6494 -153.08 -622.04 0.981846 0.161795 0.0989996
-34.6494 -152.58 -622.01 0.983733 0.155994 0.0890845
-34.6494 -152.08 -622.003 0.988132 0.131258 0.0797849
-34.6494 -151.58 -622.051 0.988862 0.133413 0.0659715
-35.1494 -150.58 -622.159 0.977699 0.208531 -0.0248967
-35.1494 -150.08 -622.052 0.979799 0.197298 -0.0326708
-35.1494 -149.58 -621.994 0.985209 0.169615 -0.0243753
-35.1494 -149.08 -621.949 0.992123 0.120721 -0.033453
-35.4255 -147.58 -621.707 0.990949 0.0585039 0.120821
-35.4237 -147.08 -621.707 0.995438 0.0595047 0.0745837
-35.4176 -146.58 -621.707 0.996737 0.00539837 0.0805422
-35.4333 -146.08 -621.707 0.997403 -0.0204764 0.0690505
-35.4721 -144.58 -621.707 0.986434 -0.0612369 0.152311
-35.4217 -144.08 -621.707 0.987031 -0.0767313 0.141005
-35.1494 -142.119 -621.707 0.998192 -0.0532465 0.0279023
-35.1494 -142.08 -621.723 0.998192 -0.0532465 0.0279023
-35.1494 -141.58 -621.944 0.998785 -0.0418653 0.0259895
-35.1494 -141.08 -622.139 0.999809 -0.0187862 0.00535184
-35.1494 -140.08 -622.126 0.999205 -0.0154599 -0.0367377
-35.1494 -139.58 -622.031 0.997633 -0.00723194 -0.0683892
-35.1494 -139.08 -622.033 0.997571 -0.0177266 -0.0673585
-35.1494 -138.58 -621.783 0.998909 0.0062111 -0.0462816
-35.1494 -138.08 -621.828 0.998822 0.00308791 -0.0484222
-35.1494 -137.58 -621.761 0.999058 -0.0139178 -0.0411067
-35.1494 -137.255 -621.707 0.9992 -0.0237759 -0.032144
-35.1694 -137.08 -621.707 0.9992 -0.0237759 -0.032144
-35.1494 -137.015 -621.707 0.9992 -0.0237759 -0.032144
-35.1494 -136.58 -621.99 0.99923 -0.02532 -0.02998
-35.1494 -136.08 -622.099 0.99923 -0.02532 -0.02998
-34.9681 -135.08 -621.707 0.993545 -0.0131088 0.11268
-33.0003 -126.024 -621.115 0.881086 -0.00811986 0.472885
