ply
format ascii 1.0
element vertex 869
property float x
property float y
property float z
property float nx
property float ny
property float nz
end_header
-110.368 48.0965 -599.366 -0.915455 0.355332 0.188896
-104.574 39.7182 -587.759 0.356291 -0.903967 -0.236432
-108.3 44.3071 -587.396 -0.807038 0.466148 0.362486
-98.5355 33.5821 -575.329 0.859692 -0.510451 -0.0192496
-97.2233 34.8445 -575.05 0.513068 -0.049936 -0.856894
-94.8308 -53.0714 -675.828 -0.778878 -0.315135 -0.542253
-90.0537 -64.5244 -674.209 -0.480566 0.570172 -0.666304
-89.7939 -64.9394 -674.421 -0.454662 0.492535 -0.742086
-90.2149 -65.0753 -674.155 -0.660523 0.120654 -0.741048
-89.433 -63.5386 -671.625 0.678961 -0.443551 0.585042
-103.662 -25.1262 -664.465 -0.898615 -0.437929 -0.0266242
-90.11 -62.2421 -666.773 0.31146 -0.921348 0.232617
-100.004 -28.6715 -660.761 -0.558853 -0.657317 0.505587
-108.31 -7.3913 -656.961 -0.907874 -0.406114 -0.104098
-104.267 -23.9967 -661.834 -0.826281 -0.543614 0.147455
-88.9993 -50.4031 -664.17 -0.284551 0.536931 0.794189
-110.364 0.0405595 -657.751 -0.957715 -0.285682 0.0341754
-112.533 9.96899 -650.381 -0.900986 -0.178977 0.395211
-102.862 -21.808 -655.513 -0.552248 -0.616687 0.560998
-99.4923 -18.5507 -650.696 -0.212458 -0.581198 0.785538
-84.7848 -62.9891 -656.992 0.141239 -0.894161 -0.424885
-109.169 3.3133 -647.015 -0.81683 -0.196905 0.542234
-84.8014 -63.1458 -656.46 0.304466 -0.897422 -0.31927
-83.604 -63.1941 -653.696 0.407394 -0.904087 -0.129063
-84.0924 -57.4065 -653.095 -0.00584969 0.896473 0.443061
-105.384 -6.97008 -645.374 -0.63944 -0.361167 0.67873
-82.1135 -64.4596 -650.766 -0.237639 -0.117093 -0.96427
-81.341 -65.3918 -649.586 0.419729 0.0423194 0.906662
-107.565 41.1938 -601.134 -0.325158 -0.925616 -0.19367
-103.465 44.8655 -581.281 -0.371521 0.897915 0.236053
-102.546 43.7183 -578.735 -0.36352 0.668019 0.64931
-103.293 44.8283 -580.811 -0.507509 0.697071 0.506485
-96.9207 33.9056 -575.021 -0.0892099 -0.954211 0.285523
-97.0369 33.9959 -575.26 0.069253 -0.241943 -0.967816
-96.8078 33.9963 -574.571 -0.189415 -0.715598 0.67234
-89.3037 -63.8722 -674.013 -0.557061 0.440032 -0.704311
-89.4081 -64.7594 -674.738 -0.542785 0.569193 -0.617579
-91.1953 -63.5753 -672.134 -0.762225 0.29405 -0.57667
-97.8421 -43.4912 -673.798 -0.945403 -0.311749 0.0950039
-89.4292 -63.6769 -671.782 0.717348 -0.434028 0.545006
-89.3878 -64.0053 -672.059 0.557965 -0.368283 0.743668
-88.9452 -63.8252 -672.207 0.497215 -0.322176 0.805593
-88.4869 -62.1828 -671.833 0.487752 -0.815743 0.310906
-102.075 -28.0655 -666.306 -0.876641 -0.480771 0.0189799
-113.267 6.5117 -659.216 -0.930094 -0.367067 -0.0136555
-113.813 9.05784 -656.299 -0.909695 -0.352611 0.219365
-107.553 -9.93396 -655.27 -0.954813 -0.296036 0.0263438
-113.451 12.8576 -651.714 -0.925226 -0.136425 0.354041
-84.3403 -62.8142 -657.14 0.16252 -0.887263 -0.431685
-88.0406 -54.8339 -657.028 0.0238464 0.948669 0.31537
-82.847 -63.2765 -650.729 -0.0132816 -0.781076 -0.624295
-83.1611 -63.015 -653.844 0.359313 -0.926226 -0.114019
-81.8309 -63.8131 -650.824 -0.154867 -0.106057 -0.982226
-81.0723 -64.7453 -649.685 0.366431 0.0470971 0.929253
-110.545 44.8032 -605.164 -0.87802 -0.456026 -0.14533
-103.827 45.5186 -583.268 -0.544259 0.798241 0.258058
-103.623 45.3657 -582.842 -0.19543 0.85832 0.47444
-103.415 45.2563 -582.352 -0.448663 0.867351 0.215417
-103.23 45.1825 -581.886 -0.405448 0.864482 0.297123
-102.708 44.9005 -580.662 -0.101311 0.851133 0.515081
-101.911 44.1689 -579.163 -0.250257 0.837481 0.485795
-101.717 43.9687 -578.824 -0.111756 0.774904 0.622121
-101.72 40.6601 -576.495 -0.388101 0.354902 0.850542
-96.5539 34.1761 -575.285 -0.0810574 0.257221 -0.962947
-96.3501 34.1673 -574.684 0.510537 -0.31575 0.799784
-96.6984 34.6749 -574.261 0.807738 -0.147514 0.570788
-96.1252 -47.8543 -675.464 -0.929548 -0.279749 -0.240168
-98.9542 -38.4179 -672.048 -0.928218 -0.195935 0.31626
-88.9454 -64.5793 -674.825 -0.431052 0.578065 -0.692846
-88.6736 -63.1787 -672.297 0.775592 -0.380489 0.503671
-93.2778 -47.1689 -668.144 -0.624809 0.0881623 0.775784
-85.736 -62.3434 -661.815 0.0847325 -0.993967 -0.0696396
-84.1038 -62.5031 -657.746 0.187234 -0.910659 -0.368298
-82.7242 -62.8195 -653.989 0.361175 -0.925244 -0.116088
-81.3808 -63.633 -650.949 -0.21072 -0.126229 -0.969362
-104.732 -0.928231 -643.179 -0.513063 -0.136542 0.847421
-102.261 -4.47484 -642.76 -0.256708 -0.236253 0.937169
-83.4156 -63.155 -648.794 0.716614 0.149932 0.681164
-80.8245 -64.0988 -649.847 0.170452 0.457153 0.872901
-105.645 40.2474 -593.941 0.248968 -0.95586 -0.156035
-103.544 45.7034 -583.89 -0.00510861 0.967437 0.253062
-103.213 45.5457 -583.088 0.165485 0.964603 0.205318
-103.159 45.5141 -582.964 0.000378069 0.980059 0.198708
-102.332 45.0805 -581.01 0.110878 0.903288 0.41446
-101.686 44.5123 -579.765 -0.0567166 0.907379 0.416468
-101.307 44.1487 -579.069 0.0730107 0.829354 0.553933
-97.9297 41.2731 -575.097 0.0355414 0.602968 0.796973
-96.6566 34.653 -575.109 0.368221 0.745977 -0.554916
-96.3446 34.18 -574.686 0.832365 0.134332 0.537701
-96.5314 37.1078 -574.129 0.527772 0.0201991 0.849146
-99.2845 -38.2598 -676.084 -0.974854 -0.0997996 -0.199247
-88.5068 -64.3992 -674.985 -0.560891 0.442553 -0.699677
-100.404 -31.4649 -668.598 -0.90038 -0.431759 0.0538557
-88.2311 -62.9986 -672.445 0.549358 -0.384358 0.74194
-95.6935 -47.4771 -671.175 -0.920718 -0.120562 0.371138
-86.8823 -62.0433 -668.58 0.190854 -0.979853 0.0588428
-110.836 -0.899675 -662.267 -0.94095 -0.338304 -0.01277
-98.09 -32.2689 -663.952 -0.611035 -0.632005 0.476661
-111.519 3.41952 -660.956 -0.948743 -0.316037 -0.00264222
-115.355 12.4857 -658.906 -0.967072 -0.239615 0.085773
-83.6803 -62.271 -657.887 0.424399 -0.881786 -0.205761
-82.2839 -62.6333 -654.136 0.440166 -0.889495 -0.122689
-80.9252 -63.4529 -651.057 -0.144559 -0.161568 -0.976216
-80.3702 -63.9187 -649.959 -0.241731 0.582476 0.776072
-103.105 45.7005 -584.036 0.312749 0.935766 0.162878
-103.149 45.6186 -583.494 0.455942 0.863699 0.214805
-101.806 45.2613 -584.909 0.647844 0.761582 -0.0170533
-102.447 45.3891 -582.674 0.204371 0.97841 0.0307533
-102.257 45.1896 -581.683 0.197066 0.962093 0.188528
-102.249 45.2813 -582.213 0.166369 0.972892 0.160631
-100.239 39.4724 -581.977 0.709751 -0.503502 -0.492685
-102.249 45.129 -581.159 0.461237 0.861318 0.213055
-102.393 45.1486 -581.111 0.257974 0.865805 0.428755
-100.961 44.3522 -579.479 0.219741 0.937585 0.269531
-100.937 44.3287 -579.436 0.171236 0.871514 0.459501
-99.0158 -35.1759 -671.06 -0.950793 -0.24276 0.192511
-88.0966 -64.2192 -675.229 -0.588555 0.483105 -0.648238
-101.549 -25.5796 -672.34 -0.836355 -0.0832734 -0.541827
-87.941 -62.352 -672.48 0.659328 -0.372177 0.653277
-87.9613 -62.1316 -672.271 0.408644 -0.823615 0.393278
-112.618 5.31997 -666.688 -0.950025 -0.305535 -0.0640333
-96.8575 -39.871 -669.62 -0.735637 -0.297413 0.608592
-114.465 16.811 -652.921 -0.93552 -0.0991296 0.33908
-83.2614 -62.0263 -658.027 0.454594 -0.867453 -0.202162
-81.878 -62.3532 -654.271 0.505957 -0.820475 -0.266135
-80.4577 -63.2728 -651.129 -0.0381424 -0.16428 -0.985676
-106.222 4.57769 -643.727 -0.538334 -0.0445219 0.841554
-79.821 -63.7506 -649.685 -0.448539 0.575282 0.684006
-79.7834 -63.7383 -649.673 -0.407368 0.60427 0.684769
-106.569 41.2176 -601.851 -0.0157454 -0.986942 -0.160305
-105.783 41.1358 -599.802 0.324953 -0.932625 -0.156895
-107.15 48.2093 -591.597 -0.424498 0.82056 0.382731
-103.832 46.1086 -585.445 -0.11131 0.932524 0.343524
-102.037 44.9181 -580.697 0.0871677 0.924273 0.371646
-99.8788 43.9967 -579.201 0.402374 0.86787 0.291372
-97.1441 39.928 -577.236 0.771053 -0.202421 -0.60374
-95.601 -45.5386 -679.362 -0.726692 -0.484913 -0.486598
-92.243 -51.298 -679.085 -0.485633 -0.417691 -0.767916
-87.704 -64.0403 -675.518 -0.646928 0.515558 -0.561857
-87.7015 -64.0392 -675.519 -0.612836 0.536214 -0.580437
-87.7326 -63.5593 -675.043 -0.527163 0.450502 -0.720519
-103.865 -22.0067 -669.067 -0.873614 -0.143975 -0.464832
-88.0497 -61.2027 -674.103 -0.366073 -0.148029 -0.918737
-106.463 -17.3436 -664.816 -0.952055 -0.0626899 -0.299434
-113.348 8.79254 -664.856 -0.954818 -0.291375 -0.0585096
-87.3457 -61.9925 -671.949 0.153031 -0.984096 -0.0902074
-86.7724 -62.2641 -670.559 0.0112776 -0.999429 0.0318459
-83.2173 -61.6979 -659.19 0.729673 -0.683029 0.0323829
-83.2644 -61.7285 -659.08 0.769107 -0.63544 0.0684794
-83.5015 -61.9812 -658.761 0.400704 -0.895743 -0.192563
-83.0871 -61.6977 -658.798 0.528782 -0.812349 -0.245926
-82.847 -61.7693 -658.165 0.509339 -0.81645 -0.271999
-111.625 14.9503 -647.867 -0.801046 -0.0443321 0.596959
-81.9119 -62.3418 -654.359 0.514559 -0.800831 -0.306428
-81.482 -62.046 -654.403 0.505167 -0.814082 -0.286491
-80.1973 -63.1758 -651.141 0.0975037 -0.0735327 -0.992515
-79.9586 -63.0926 -651.107 0.375485 0.332779 -0.865026
-101.126 2.92986 -641.726 -0.0613584 0.0272078 0.997745
-80.4328 -61.2264 -649.422 0.0139972 -0.292203 0.956254
-79.2392 -63.5581 -649.515 -0.467158 0.527263 0.709759
-110.584 48.3459 -611.077 -0.879193 -0.328652 -0.344976
-110.904 50.4241 -606.394 -0.965321 0.147057 0.215706
-106.483 41.3326 -602.407 -0.258597 -0.904902 -0.338054
-106.358 41.411 -602.675 -0.266313 -0.890272 -0.369449
-105.963 41.3805 -601.526 0.518385 -0.842703 -0.145356
-96.8693 -43.1165 -680.15 -0.794063 -0.371786 -0.480874
-99.1596 -31.5652 -675.331 -0.90451 0.0476465 -0.423782
-99.9891 -28.1987 -673.953 -0.837883 -0.0779735 -0.540252
-87.289 -63.8592 -675.757 -0.550783 0.590268 -0.590103
-87.2917 -63.769 -675.655 -0.50455 0.643786 -0.575299
-85.3721 -61.9648 -675.333 -0.130061 0.51398 -0.847885
-104.009 -15.1549 -668.709 -0.774577 0.141355 -0.616481
-110.11 1.00447 -669.669 -0.748572 -0.56524 -0.346618
-115.877 15.4098 -664.637 -0.97327 -0.192344 -0.125494
-86.701 -61.9332 -671.637 0.150084 -0.979739 -0.132616
-86.8692 -61.9053 -672.108 0.143575 -0.983574 -0.109403
-86.8538 -62.126 -671.059 0.216457 -0.89445 -0.391287
-109.523 -4.14217 -661.946 -0.852701 -0.487345 -0.188136
-86.5021 -61.9909 -671.11 0.198897 -0.933443 -0.298535
-86.1558 -62.1279 -670.237 0.165192 -0.944204 0.28494
-91.2862 -40.4217 -666.471 -0.154213 -0.207419 0.966021
-96 -36.5487 -666.255 -0.563784 -0.537618 0.626988
-83.3566 -61.5381 -661.564 0.419939 -0.905009 -0.067903
-83.0394 -61.5183 -660.133 0.517839 -0.850085 -0.0959037
-83.1195 -61.6056 -659.655 0.677478 -0.735289 -0.0193243
-87.588 -52.6235 -661.63 -0.212967 0.812279 0.542998
-82.9888 -61.6803 -658.645 0.52746 -0.804882 -0.271939
-82.6262 -61.4151 -658.765 0.48039 -0.849104 -0.219654
-82.6318 -61.599 -658.236 0.527127 -0.793983 -0.302867
-81.0684 -61.787 -654.541 0.463683 -0.863478 -0.198501
-108.831 9.81587 -645.167 -0.627085 -0.05676 0.77688
-79.9563 -62.6058 -650.695 0.860947 0.268772 0.431894
-80.6947 -62.5922 -651.233 0.275819 -0.565309 -0.777399
-79.6038 -62.5263 -650.285 -0.586716 -0.17078 0.791579
-79.5268 -62.5455 -650.838 0.0467894 0.988941 -0.140732
-79.3359 -62.4765 -650.095 -0.465955 0.41449 0.781719
-79.0355 -63.495 -649.42 0.472584 0.865567 -0.165708
-78.4267 -63.8231 -649.095 -0.65395 -0.225387 0.722184
-107.533 42.2105 -603.755 -0.371848 -0.852517 -0.367348
-106.218 41.5041 -603.022 -0.312256 -0.899226 -0.306413
-106.135 41.5907 -603.482 -0.328172 -0.885253 -0.32959
-105.668 41.5915 -602.078 0.843832 -0.499231 0.196765
-100.743 42.4311 -585.569 0.899432 -0.189029 -0.394069
-100.223 44.8187 -581.51 0.514945 0.854989 0.0618484
-97.3187 41.9377 -577.604 0.824929 0.563942 -0.0382203
-86.8796 -63.2124 -675.434 0.411112 -0.555201 0.723007
-116.512 20.1135 -659.973 -0.996006 -0.0275574 0.0849308
-86.4342 -61.9553 -671.199 0.170366 -0.963642 -0.205836
-85.5767 -62.2767 -670.377 -0.0686765 -0.811252 0.580649
-85.6281 -62.2912 -670.413 -0.105895 -0.867487 0.486058
-85.5844 -61.8684 -669.901 0.292352 -0.905979 0.306156
-105.006 -8.91938 -662.697 -0.82585 -0.10238 -0.554518
-80.6331 -60.0694 -661.301 0.265441 -0.963838 0.023596
-83.0065 -61.4956 -660.22 0.547193 -0.828873 -0.116402
-82.6971 -61.1269 -660.323 0.526513 -0.84665 -0.0772542
-114.352 20.7795 -651.897 -0.895344 0.0457569 0.443019
-82.7923 -61.393 -659.237 0.483764 -0.852649 -0.197388
-82.3776 -61.1368 -659.375 0.566085 -0.807475 0.165927
-82.0444 -61.1842 -658.432 0.467807 -0.85438 -0.226255
-81.233 -61.7689 -655.013 0.482248 -0.849488 -0.214027
-80.8242 -61.4966 -655.149 0.487253 -0.845265 -0.219343
-109.042 16.4226 -645.288 -0.55595 0.0196742 0.830983
-82.4232 -60.0416 -649.673 0.224394 0.45611 0.861169
-78.918 -62.388 -650.513 -0.247282 0.949918 -0.191071
-79.098 -61.579 -650.747 0.499842 -0.804026 -0.322024
-80.94 -57.1451 -649.979 -0.883783 0.238663 -0.402452
-80.6778 -57.5863 -649.931 0.146995 -0.986632 -0.0703602
-79.1899 -62.0162 -649.946 -0.917284 -0.355706 -0.179059
-80.7935 -57.1345 -649.726 -0.234766 0.283413 0.929818
-78.6584 -60.9017 -648.894 -0.094081 -0.45984 0.883004
-78.5582 -63.3647 -649.052 -0.673615 -0.163988 0.72066
-78.4181 -63.8441 -649.095 -0.652371 -0.254634 0.713844
-78.148 -63.2618 -648.661 -0.609627 0.341186 0.715505
-77.9191 -63.1972 -648.502 -0.519476 0.573515 0.633423
-106.306 42.1325 -604.047 -0.170807 -0.854956 -0.489771
-106.149 42.2367 -604.434 -0.440469 0.0815834 -0.894053
-106.076 41.6259 -603.596 -0.265208 -0.804873 -0.530891
-105.666 41.6008 -602.152 0.801609 -0.597099 0.0299344
-105.363 41.7714 -602.639 0.840253 -0.410535 0.354169
-101.468 43.1304 -589.268 0.943066 -0.313249 -0.111807
-98.816 43.1376 -582.091 0.911172 0.257521 -0.321633
-94.8432 39.3202 -574.485 0.899092 0.165919 0.405099
-96.229 36.972 -575.466 0.843403 -0.362827 -0.396267
-100.95 -17.6663 -672.166 -0.510039 0.208709 -0.834446
-86.47 -63.0324 -675.68 -0.543635 0.70643 -0.45323
-109.243 -2.0052 -665.807 -0.724797 -0.588141 -0.358831
-116.347 24.1847 -660.27 -0.990388 0.104631 0.0904694
-85.1455 -61.6784 -670.047 0.396014 -0.913282 0.0953326
-82.5405 -61.1235 -659.848 0.452657 -0.883019 -0.124012
-81.5506 -60.6039 -659.603 0.473613 -0.870693 -0.132608
-81.6317 -60.9225 -658.57 0.460769 -0.857664 -0.228266
-80.4146 -61.2266 -655.286 0.545254 -0.804363 -0.236004
-80.8546 -56.5619 -650.977 -0.528629 0.598628 0.601827
-80.4717 -56.9833 -650 0.740092 0.609928 -0.283288
-78.7725 -62.2265 -650.13 0.22171 0.665377 -0.712824
-78.2948 -62.2697 -650.194 -0.122652 0.988985 -0.0828593
-78.5226 -61.6588 -649.999 0.785129 -0.539153 -0.304772
-78.2199 -62.0849 -649.743 -0.285715 -0.0884403 -0.954225
-98.0005 -3.16579 -642.133 0.163725 -0.192094 0.967623
-80.2972 -63.0325 -650.601 -0.00953728 0.00785907 0.999924
-77.6726 -62.6746 -648.82 -0.493104 0.63022 0.599726
-106.236 42.842 -605.651 -0.155378 -0.881855 -0.445184
-105.964 42.531 -605.215 -0.0210086 -0.971565 -0.235838
-105.707 42.4168 -604.581 -0.217672 -0.609003 -0.762715
-105.061 41.9512 -603.209 0.916227 -0.27736 0.289136
-105.27 41.826 -602.81 0.854217 -0.405251 0.325707
-86.0268 -62.8523 -675.825 -0.392152 0.650437 -0.650499
-84.7973 -61.6716 -670.69 0.47387 -0.879065 -0.0518729
-114.797 26.2671 -654.25 -0.89743 0.228892 0.377131
-81.2161 -60.6689 -658.708 0.459048 -0.857038 -0.234009
-80.4845 -61.109 -655.789 0.582329 -0.770142 -0.260334
-80.5834 -61.1969 -655.757 0.591031 -0.763595 -0.260009
-80.2178 -61.0644 -655.351 0.558279 -0.793488 -0.242284
-79.9537 -61.021 -654.912 0.518458 -0.823398 -0.23069
-83.5346 -55.3986 -656.444 -0.28309 0.831367 0.478215
-79.6861 -60.976 -654.474 0.514844 -0.82524 -0.232196
-79.678 -60.9746 -654.462 0.51247 -0.824902 -0.238559
-77.8699 -62.4847 -649.808 0.447302 0.547337 -0.70735
-77.81 -62.1136 -649.483 0.212484 0.966508 -0.143922
-78.0851 -61.2926 -649.656 0.886085 -0.438089 0.151432
-77.4508 -62.371 -649.479 0.354328 0.480878 -0.802002
-77.456 -62.4442 -648.892 -0.519588 0.31142 0.795642
-77.2119 -62.3706 -648.761 -0.529929 0.029704 0.847522
-105.917 43.0625 -606.119 0.00738084 -0.849132 -0.528129
-105.342 42.6518 -604.895 0.393517 -0.847514 -0.356181
-105.234 42.597 -604.638 0.517432 -0.787058 -0.335864
-105.117 42.0164 -603.915 0.974225 0.223623 0.0296225
-105.203 42.2046 -602.516 0.756102 -0.654308 -0.0137723
-105.142 42.5971 -604.36 0.829978 -0.55377 -0.0669
-104.978 42.0087 -603.435 0.536221 0.842691 -0.0483743
-113.221 8.66521 -671.071 -0.934511 -0.302727 -0.187204
-85.5206 -62.6721 -675.781 -0.135999 0.550964 -0.823373
-91.0069 -56.9534 -676.156 -0.291569 -0.506156 -0.811661
-85.3984 -60.4454 -674.756 0.174261 -0.0926839 -0.980328
-103.032 -12.0798 -668.207 -0.579883 0.463288 -0.670149
-84.5258 -61.2702 -671.08 0.568359 -0.558159 -0.604505
-84.6841 -61.3071 -671.254 0.652761 -0.50535 -0.56438
-84.3928 -61.3879 -670.824 0.491572 -0.852862 -0.176023
-84.6358 -61.1557 -671.271 0.502582 -0.691082 -0.519439
-84.1642 -61.2234 -669.764 0.292849 -0.955091 0.0451773
-82.6259 -60.9661 -666.003 0.227877 -0.973659 0.00774895
-94.9399 -31.6715 -661.59 -0.159926 -0.64007 0.751488
-80.8046 -60.4041 -658.845 0.429845 -0.882564 -0.190564
-98.1597 -22.6954 -653.595 -0.129286 -0.649865 0.748973
-79.3946 -60.9214 -654.044 0.499697 -0.824801 -0.264587
-79.1139 -60.7074 -654.138 0.474465 -0.846352 -0.242013
-78.9314 -60.7969 -653.672 0.452649 -0.82985 -0.32628
-80.0578 -61.4903 -653.471 0.474498 -0.851828 -0.221903
-78.9215 -60.7939 -653.666 0.455314 -0.831838 -0.317387
-99.1991 -11.0966 -645.039 -0.0239583 -0.498818 0.866375
-77.3846 -62.3511 -649.443 0.334084 0.458351 -0.823591
-76.8424 -62.1906 -649.128 0.34362 0.404119 -0.84771
-76.8831 -62.275 -648.556 -0.109685 0.983902 0.141091
-78.2877 -62.3055 -649.436 -0.420034 0.427759 0.800371
-76.6507 -62.2566 -648.633 -0.328168 0.707214 0.626222
-111.817 56.2869 -610.558 -0.990111 -0.137164 -0.0294333
-108.328 43.6658 -606.731 -0.397174 -0.845225 -0.357558
-106.093 43.7083 -607.555 -0.0666413 -0.970752 -0.230648
-105.516 43.2571 -606.374 0.122033 -0.95789 -0.259913
-105.343 43.1803 -605.949 0.483551 -0.826452 -0.288367
-105.174 43.1506 -605.478 0.522995 -0.77916 -0.345523
-104.627 43.2467 -604.923 0.56789 -0.768674 -0.29435
-105.13 42.6108 -604.438 0.740249 -0.664556 -0.101967
-85.3547 -62.6123 -675.773 -0.149239 0.5535 -0.819369
-85.0177 -62.4919 -675.747 -0.110741 0.567522 -0.815877
-106.295 -5.59704 -664.963 -0.535438 -0.656696 -0.531091
-84.2027 -60.9498 -671.415 0.438863 -0.898458 0.0131622
-84.1968 -61.0903 -671.569 0.497924 -0.630875 0.595036
-84.0619 -61.0901 -671.163 0.209238 -0.799388 -0.563204
-83.802 -61.1811 -670.494 0.256257 -0.963974 0.0713182
-83.6613 -61.1342 -670.014 0.194127 -0.980115 0.0410917
-91.5492 -37.2005 -665.252 0.0314221 -0.44664 0.894162
-80.9774 -60.2619 -659.842 0.479809 -0.875708 -0.0540249
-80.7118 -60.1317 -659.93 0.314441 -0.948946 -0.0250585
-80.7806 -60.2457 -659.38 0.466805 -0.829091 -0.307735
-80.377 -60.1832 -658.987 0.288624 -0.943043 -0.165425
-80.4713 -60.1505 -659.231 0.252227 -0.937948 -0.237983
-110.668 21.6846 -647.072 -0.705579 0.141126 0.694436
-79.6166 -60.6287 -655.552 0.463037 -0.864167 -0.197007
-79.7809 -60.6115 -656.024 0.465397 -0.86201 -0.200856
-79.3674 -60.3519 -656.162 0.469685 -0.862523 -0.18828
-79.4499 -60.6526 -655.08 0.465553 -0.859593 -0.210618
-79.2821 -60.6794 -654.609 0.465386 -0.85841 -0.21575
-97.7439 -14.2336 -647.369 0.0301683 -0.569334 0.821552
-78.5211 -60.5063 -653.808 0.438036 -0.85726 -0.27061
-78.431 -60.6572 -653.311 0.459469 -0.844527 -0.275068
-78.2602 -60.6135 -653.156 0.418746 -0.900526 0.117067
-102.554 15.0067 -642.599 -0.492841 -0.280371 0.823711
-76.8064 -62.1798 -649.108 0.155254 0.956728 -0.246106
-76.5609 -62.1439 -648.663 -0.26674 0.798191 0.540131
-105.866 43.8313 -607.883 -0.117424 -0.916383 -0.382694
-105.767 43.8882 -608.054 -0.0571294 -0.960551 -0.272172
-105.503 43.7106 -607.477 0.244951 -0.897636 -0.366399
-105.253 43.4613 -607.033 0.240631 -0.788984 -0.565333
-105.498 43.253 -606.424 -0.8444 -0.460085 -0.274427
-105.227 43.4224 -607 0.208934 -0.531953 -0.820593
-104.963 43.4228 -606.208 -0.0714602 0.629648 0.773587
-100.835 46.0008 -593.896 0.98862 0.0842427 0.124636
-115.627 22.7817 -668.68 -0.981513 0.0038117 -0.191358
-84.5325 -56.5418 -676.91 0.374203 -0.434699 -0.819151
-84.9766 -61.9864 -675.372 -0.0133681 0.816207 -0.577605
-84.4777 -61.8449 -675.031 0.192748 0.570269 -0.798525
-84.4881 -61.8001 -675.008 0.292772 0.440074 -0.848893
-84.5811 -61.3784 -674.772 0.548667 0.491388 -0.676389
-101.244 -7.41453 -665.444 -0.337249 -0.117968 -0.933995
-83.5004 -61.0813 -669.541 0.217942 -0.975596 -0.0267109
-83.2771 -61.0543 -669.088 0.162635 -0.98664 -0.0095728
-82.8795 -61.0178 -669.22 0.162217 -0.98675 0.00308999
-82.7471 -60.9481 -668.737 0.490446 -0.871038 -0.0274913
-82.5781 -60.9782 -668.267 -0.163929 -0.98647 0.00195648
-82.4191 -60.9811 -667.793 -0.0472065 -0.99888 0.00307382
-80.3354 -60.0646 -659.528 0.116544 -0.984649 -0.129938
-79.9252 -60.0284 -659.138 0.386331 -0.637103 0.666969
-79.5247 -60.3537 -656.636 0.473782 -0.863696 -0.171928
-79.1136 -60.0879 -656.773 0.4696 -0.855147 -0.219544
-77.9267 -60.3097 -653.479 0.416802 -0.870887 -0.260446
-92.8296 -10.6611 -647.089 0.583825 -0.304743 0.752516
-77.7525 -60.3539 -653.01 0.444391 -0.87229 -0.204027
-112.402 31.0484 -644.419 -0.934928 -0.344192 0.0862578
-105.212 43.8731 -608.101 0.297473 -0.947019 -0.121101
-104.886 43.5022 -606.628 0.889767 -0.16405 -0.425913
-104.775 43.7753 -606.502 0.686357 -0.702859 -0.186824
-109.01 53.4719 -605.836 -0.602416 0.355075 0.714854
-97.1877 -39.9448 -681.123 -0.77116 -0.0595163 -0.633854
-92.7112 -47.536 -680.837 -0.507568 -0.427873 -0.747863
-96.6238 -34.7072 -680.008 -0.678825 0.254502 -0.688786
-84.5939 -60.8866 -674.446 0.477082 0.285406 -0.831225
-84.0846 -60.7315 -674.187 0.433888 0.29845 -0.850099
-83.5921 -60.7988 -672.145 0.712394 -0.701773 0.003112
-83.4512 -60.656 -672.192 0.766291 -0.608992 -0.204758
-83.5233 -60.7305 -672.499 0.825765 -0.56107 -0.0575515
-81.7327 -61.0353 -667.494 0.116846 -0.986363 0.11591
-93.2816 -22.8617 -654.732 0.402546 -0.537022 0.741326
-79.2839 -59.9594 -658.824 0.096147 -0.993953 -0.0530435
-81.8454 -53.5988 -657.085 -0.522093 0.832966 0.183266
-78.6925 -59.8494 -656.913 0.429426 -0.90298 -0.014841
-81.1262 -53.866 -655.58 -0.564453 0.662057 0.493024
-80.8206 -53.612 -655.682 -0.32968 0.910545 0.249439
-77.8452 -59.4527 -656.534 0.197919 -0.97811 0.0642498
-80.6223 -53.7249 -655.221 -0.577603 0.705223 0.411139
-80.6208 -53.7246 -655.22 -0.574662 0.720565 0.388008
-80.4285 -53.8196 -654.758 -0.534528 0.740139 0.408013
-77.6695 -59.7531 -654.816 0.428958 -0.862356 -0.268955
-111.304 31.5081 -640.99 -0.905857 -0.260255 0.334201
-106.665 22.8538 -639.494 -0.783257 -0.539361 0.309189
-78.12 -54.4196 -650.767 -0.144275 0.829727 0.539201
-110.815 34.1022 -638.194 -0.904131 -0.23974 0.353655
-110.607 58.3883 -606.436 -0.6835 -0.163353 0.711438
-109.816 7.86557 -678.522 -0.712965 -0.449677 -0.538025
-114.263 13.605 -669.159 -0.968066 -0.202137 -0.148289
-86.4364 -53.9968 -678.852 0.184634 -0.427596 -0.884913
-107.187 2.94864 -676.394 -0.500782 -0.657634 -0.562792
-115.4 18.3452 -668.679 -0.971037 -0.111791 -0.211164
-116.084 25.657 -664.723 -0.993946 0.0764777 -0.0788877
-84.2095 -60.2581 -674.048 0.577938 -0.203386 -0.79033
-83.8215 -60.1642 -673.65 0.722319 -0.480053 -0.497799
-83.5424 -60.1146 -673.216 0.626909 -0.524511 -0.576084
-83.5252 -60.7076 -672.694 0.933917 -0.320818 -0.157715
-83.063 -60.3276 -672.321 0.320525 -0.668357 -0.67124
-86.9954 -39.9685 -667.343 0.510967 -0.0795075 0.855916
-88.7688 -45.9481 -666 -0.026986 0.260213 0.965174
-81.1606 -60.7778 -667.158 0.221811 -0.967183 0.123921
-81.016 -60.7414 -666.679 0.0480727 -0.976505 -0.210064
-82.8881 -51.3146 -663.03 0.0791787 0.81019 0.580795
-79.1154 -59.9884 -658.353 0.0801133 -0.993645 -0.079066
-78.9516 -60.0043 -657.881 0.0975882 -0.995197 0.00773815
-78.814 -59.9487 -657.4 0.218949 -0.962199 0.161972
-112.051 30.4151 -649.374 -0.943283 -0.312676 0.111586
-80.3531 -53.4998 -655.838 -0.0446135 0.996045 0.076841
-78.1653 -59.6933 -656.035 -0.242179 0.936788 0.252544
-77.9752 -59.5569 -656.098 0.463367 -0.883149 -0.0730675
-80.6178 -53.7231 -655.222 -0.202068 0.945267 0.256202
-80.2537 -53.5446 -655.594 -0.152195 0.959162 0.23842
-77.949 -59.6692 -655.58 0.751372 -0.567618 -0.336527
-77.6694 -59.6078 -655.242 0.448009 -0.851886 -0.271253
-79.7879 -53.7491 -654.445 -0.230775 0.933394 0.274805
-107.683 22.4095 -644.916 -0.799544 -0.221907 0.55811
-102.36 7.20597 -642.392 -0.159436 0.046491 0.986113
-76.9403 -57.0296 -648.123 -0.136406 0.510698 0.84887
-74.6502 -61.4943 -648.245 -0.826034 -0.498914 0.262209
-75.4583 -60.855 -646.949 -0.148923 -0.599276 0.786569
-74.6206 -61.4695 -648.36 -0.96155 -0.176408 -0.210478
-74.3686 -61.6401 -647.812 -0.460688 0.405832 0.789346
-107.218 24.909 -637.948 -0.809487 -0.401474 0.428427
-106.081 29.9773 -631.67 -0.766799 -0.312898 0.560459
-109.748 54.8639 -614.632 -0.78554 -0.192064 -0.588251
-107.88 46.4777 -613.088 -0.383098 -0.659169 -0.647095
-105.138 44.2893 -609.69 -0.259936 -0.913329 -0.313472
-104.58 43.9464 -609.365 -0.567322 -0.815823 0.112151
-104.594 43.9614 -609.53 -0.345682 -0.912908 -0.21703
-104.433 43.9424 -608.887 -0.432171 -0.546199 0.717562
-104.331 44.3283 -608.598 0.516193 -0.845501 0.136653
-104.375 43.9354 -608.906 0.613881 -0.52889 0.586025
-104.349 53.106 -603.302 0.271846 0.884872 0.378286
-103.059 50.895 -597.952 0.317389 0.892337 0.320933
-102.576 47.6267 -590.476 0.561451 0.766023 0.313018
-110.257 3.9855 -673.578 -0.775318 -0.499919 -0.385958
-113.849 13.0686 -673.589 -0.955242 -0.174066 -0.239194
-95.2846 -31.9528 -679.959 -0.43996 0.374583 -0.816163
-82.6629 -60.0316 -672.455 0.282489 -0.675886 -0.680719
-83.0575 -58.2669 -674.37 0.590285 -0.44726 -0.671954
-115.573 29.031 -663.104 -0.962455 0.270204 0.0258909
-84.1208 -46.8792 -666.598 0.315292 0.629333 0.710303
-80.5256 -60.9185 -666.315 0.0437491 -0.98863 0.143864
-80.2301 -60.833 -666.127 0.0739831 -0.854341 0.51442
-80.2215 -60.6596 -665.889 0.170673 -0.915223 0.365017
-91.0589 -30.5606 -661.063 0.400099 -0.476178 0.783055
-109.855 27.1359 -643.85 -0.874418 -0.470999 0.116415
-110.483 27.6932 -648.973 -0.930829 -0.151917 0.332382
-80.1334 -53.3981 -656.438 -0.173158 0.972349 0.156693
-80.0943 -53.365 -656.592 -0.159257 0.982111 0.10048
-80.234 -53.503 -655.877 -0.032682 0.995864 0.0847743
-77.3633 -59.4077 -655.775 -0.0084496 -0.998399 0.0559217
-94.5585 -17.4345 -650.415 0.319488 -0.534901 0.782182
-77.1986 -59.4264 -655.303 0.253138 -0.955486 -0.151552
-79.334 -53.5999 -654.596 -0.0946189 0.980283 0.173472
-113.409 38.0623 -644.718 -0.949842 0.0571561 0.307462
-103.573 19.1847 -639.601 -0.690041 -0.588978 0.420653
-74.7905 -60.9514 -648.726 0.935563 0.151748 0.318895
-74.5604 -60.8233 -649.087 -0.515698 -0.679254 -0.522178
-74.6987 -61.6014 -648.756 -0.918225 0.392863 0.050222
-74.6221 -61.4189 -648.782 -0.950003 0.28063 0.136899
-111.483 36.9833 -637.536 -0.926831 -0.141839 0.347658
-73.6886 -60.6646 -647.916 0.621144 -0.0559484 0.781697
-73.7114 -61.7554 -647.676 0.20644 0.206446 0.956432
-73.7101 -58.9084 -647.131 0.573436 0.274769 0.771799
-78.0381 -47.3044 -642.911 -0.825541 -0.350893 -0.441992
-77.97 -47.4095 -642.933 -0.826597 -0.443864 -0.346007
-77.4138 -47.9619 -643.553 -0.82282 -0.456136 -0.33898
-78.2577 -46.8577 -642.838 -0.797798 -0.234114 -0.555616
-78.3763 -46.3611 -642.872 -0.851412 -0.258305 -0.456482
-78.4162 -46.3862 -642.785 -0.831959 -0.222369 -0.508327
-77.4753 -48.7474 -642.57 -0.722143 -0.502611 -0.47528
-77.2369 -48.9786 -642.649 -0.687312 -0.545725 -0.479361
-77.6078 -48.2267 -642.844 -0.806865 -0.422847 -0.412516
-77.8083 -48.3468 -642.459 -0.722403 -0.457037 -0.518895
-78.6896 -46.5409 -642.336 -0.80186 -0.206475 -0.560704
-107.433 28.1982 -635.144 -0.812338 -0.406559 0.418111
-112.612 62.9848 -608.511 -0.948931 -0.102928 0.298222
-113.655 69.2758 -610.902 -0.986034 -0.106237 0.128262
-103.534 44.5157 -611.651 -0.0629817 -0.976919 -0.204114
-104.047 43.9971 -609.542 0.573496 -0.805497 0.149257
-107.008 51.3026 -600.022 -0.385011 0.849011 0.361866
-113.968 20.2203 -674.922 -0.95128 -0.0328814 -0.306569
-97.7749 -21.502 -674.602 -0.3991 0.311155 -0.862497
-82.269 -59.7244 -672.586 0.349397 -0.636668 -0.687441
-82.267 -59.7236 -672.586 0.370825 -0.577012 -0.727699
-79.3346 -60.3117 -665.339 0.260147 -0.964494 0.0455534
-79.8249 -60.3541 -666.021 0.437398 -0.86062 -0.260799
-81.1128 -52.9091 -658.921 -0.0690621 0.954165 0.291204
-79.7302 -53.2861 -657.099 -0.230618 0.92224 0.310303
-74.479 -59.4831 -654.313 -0.44307 -0.879857 -0.171874
-79.4973 -53.5854 -655.068 -0.0533075 0.994511 0.0900335
-79.6717 -53.5403 -655.537 -0.0806589 0.971272 0.223886
-79.21 -53.4127 -655.691 -0.0534645 0.971555 0.230699
-76.511 -59.3864 -654.407 0.145634 -0.978392 -0.146767
-74.8219 -60.2139 -650.824 -0.0515574 -0.902203 -0.42822
-98.6224 11.3612 -642.279 -0.190797 -0.337889 0.921644
-74.5952 -60.4513 -649.537 -0.446893 -0.839095 -0.310172
-74.4571 -60.7518 -649.364 -0.704574 -0.568635 -0.424534
-74.292 -60.6435 -649.757 -0.679926 -0.619385 -0.392508
-74.9345 -56.3152 -649.994 0.558404 0.67033 0.488716
-73.1152 -62.0417 -647.932 0.644271 0.259911 0.719278
-77.9379 -46.6477 -643.602 -0.871065 -0.328494 -0.365154
-77.9942 -46.6866 -643.452 -0.856639 -0.334982 -0.392372
-78.1474 -46.2129 -643.402 -0.866845 -0.233748 -0.440389
-76.6864 -49.4984 -642.832 -0.642631 -0.553093 -0.530201
-77.0857 -49.1249 -642.699 -0.680058 -0.54878 -0.486171
-76.5945 -49.4458 -642.987 -0.614072 -0.553551 -0.56258
-77.8154 -47.7603 -642.898 -0.829168 -0.407497 -0.382658
-105.245 24.4396 -635.311 -0.724482 -0.497465 0.47713
-104.33 34.0593 -628.483 -0.70983 -0.234429 0.664217
-109.596 62.5132 -605.199 -0.413809 -0.084345 0.906448
-101.697 43.7487 -600.155 0.764153 -0.630411 -0.136572
-95.9479 -27.7342 -677.488 -0.445276 0.2957 -0.845157
-81.9129 -59.3839 -672.675 0.379636 -0.600789 -0.703512
-81.7389 -59.5434 -672.476 0.39176 -0.396468 -0.830263
-79.8007 -59.8945 -667.084 0.550793 -0.652254 -0.520761
-79.9375 -60.0792 -667.038 0.616784 -0.5862 -0.525306
-79.6574 -60.0066 -666.79 0.469242 -0.723837 -0.505838
-80.9757 -49.642 -665.507 0.642657 0.664462 0.381423
-79.3825 -60.1734 -666.169 0.00767867 -0.999944 -0.00728198
-113.235 35.0414 -651.332 -0.972954 -0.229329 -0.0277142
-113.232 35.4145 -646.656 -0.982801 -0.15888 0.0941259
-78.0979 -60.002 -662.637 0.341689 -0.939609 -0.0196098
-78.5437 -59.8451 -659.763 0.0063778 -0.999879 0.014193
-77.7019 -60.0185 -660.932 -0.238532 -0.970742 -0.0276059
-77.7359 -60.0033 -661.015 0.0369645 -0.998468 -0.0411776
-94.8323 -26.7832 -657.25 0.0864845 -0.636207 0.766656
-77.543 -60.0211 -660.457 -0.158407 -0.98576 0.0564268
-77.3771 -60.0428 -659.986 -0.337267 -0.938256 0.0769899
-77.2135 -60.0581 -659.513 -0.0640843 -0.996179 -0.0593281
-77.0557 -60.0576 -659.039 -0.0444918 -0.994523 0.0945738
-79.5492 -53.3489 -656.632 -0.047473 0.988843 0.141192
-79.3784 -53.384 -656.162 0.0102455 0.997646 0.0678069
-75.4132 -60.0767 -650.945 0.0783148 -0.980998 -0.177507
-74.4357 -59.9977 -651.096 0.0412623 -0.969849 -0.240186
-74.6534 -60.1678 -650.353 0.631917 -0.716953 -0.294379
-74.2246 -60.5932 -649.968 -0.605985 -0.746396 -0.275091
-72.7217 -62.3816 -648.359 0.930736 0.183312 0.31643
-72.8422 -61.8946 -648.32 0.841791 0.250339 0.478245
-72.6556 -62.3284 -648.598 0.949445 0.166123 0.26638
-112.252 46.2522 -637.079 -0.97307 -0.100643 0.207379
-77.3582 -47.4009 -644.479 -0.843435 -0.425665 -0.327761
-77.4508 -47.4735 -644.16 -0.862323 -0.41867 -0.284807
-77.6288 -47.0099 -644.101 -0.897976 -0.328071 -0.293272
-77.7794 -46.5352 -644.051 -0.893411 -0.244419 -0.376931
-76.2707 -49.2706 -643.497 -0.6796 -0.699089 -0.222304
-100.632 20.7406 -632.906 -0.528038 -0.644214 0.553321
-104.156 44.4838 -612.668 -0.770247 -0.604186 0.204156
-104.168 44.5002 -612.682 -0.861377 -0.465445 -0.20345
-104.193 44.5341 -612.655 -0.976541 -0.200791 0.0777854
-104.146 44.5002 -612.617 -0.569683 -0.205445 0.795773
-104.302 46.0103 -612.783 -0.464375 -0.443782 -0.766429
-100.919 45.7744 -601.729 0.95555 -0.26002 -0.138972
-81.5073 -60.0098 -672.35 0.170488 0.00653828 -0.985338
-81.3906 -59.9669 -672.351 0.253221 0.0199244 -0.967203
-81.2401 -59.3926 -672.3 0.456328 -0.450243 -0.767493
-81.0123 -59.8769 -671.95 0.623915 0.0195689 -0.781247
-80.8314 -60.0043 -672.01 0.343012 0.747001 -0.569502
-79.3866 -59.919 -666.694 0.465071 -0.75961 -0.454644
-79.1855 -59.7545 -666.761 0.171515 -0.946849 -0.27214
-79.0026 -59.8262 -666.3 0.274264 -0.927832 -0.252799
-78.6857 -60.2977 -665.874 -0.0205189 -0.994474 0.102962
-79.0516 -60.3826 -666.279 -0.347843 -0.803916 0.482415
-78.6651 -60.2923 -665.856 0.2374 -0.932391 0.27256
-77.6223 -59.7099 -662.012 0.267225 -0.934886 0.233623
-77.536 -59.5144 -661.514 0.778369 -0.615823 -0.122084
-76.737 -59.8223 -659.49 0.390891 -0.743465 -0.542646
-77.1082 -59.9514 -659.548 0.315904 -0.567172 -0.760605
-76.8398 -59.6901 -659.638 0.319402 -0.583495 -0.74667
-76.4129 -59.9931 -658.726 -0.0554104 -0.987099 0.15022
-76.2681 -59.9571 -658.247 -0.0784806 -0.934662 0.346768
-74.4201 -60.825 -653.065 -0.989609 0.0720307 0.124439
-74.3037 -60.7516 -653.318 -0.535835 -0.565634 -0.626849
-74.2729 -60.8291 -652.587 -0.994449 -0.0196059 0.10338
-74.3081 -60.3714 -652.048 -0.63879 -0.766033 -0.0716995
-74.4858 -59.9716 -651.463 0.31306 -0.868212 0.384969
-93.6765 -0.730834 -643.394 0.568702 -0.0922489 0.817355
-72.4844 -62.6291 -650.019 0.992463 0.122089 0.0105262
-72.4882 -62.6155 -650.143 0.991344 0.127617 -0.0308309
-72.4983 -62.6987 -649.488 0.991298 0.118469 0.0573857
-72.5955 -62.2662 -648.929 0.981034 0.132632 0.141352
-76.7608 -48.154 -645.301 -0.892581 -0.392933 -0.221141
-76.8498 -48.237 -644.886 -0.853258 -0.441625 -0.27734
-77.0412 -47.7788 -644.823 -0.873378 -0.369751 -0.317008
-77.2776 -47.339 -644.744 -0.849446 -0.394494 -0.350451
-75.8094 -49.6136 -643.651 -0.573149 -0.816128 -0.0737203
-75.794 -49.5526 -644.107 -0.557435 -0.828111 -0.0591487
-110.204 38.7225 -634.962 -0.884216 -0.135243 0.44707
-107.792 48.9209 -614.617 -0.3921 -0.415495 -0.820745
-104.209 45.017 -612.65 -0.888326 -0.429016 -0.163777
-103.983 45.1465 -613.033 -0.666768 -0.0307774 -0.74463
-103.608 44.6805 -612.478 -0.161039 -0.986186 0.0387833
-111.025 67.8595 -605.981 -0.670447 -0.0112653 0.741872
-103.337 44.9388 -607 0.711376 -0.672769 -0.20329
-90.0889 -48.5336 -681.215 -0.051217 -0.397015 -0.916382
-104.418 -3.44465 -669.523 -0.345062 -0.769684 -0.537139
-113.911 33.0824 -661.181 -0.909053 0.398428 0.12197
-80.1261 -60.5883 -672.244 0.651675 0.754483 -0.0779388
-80.1008 -60.61 -672.253 0.650522 0.755784 -0.0749086
-80.5342 -60.2184 -672.109 0.513305 0.674095 -0.531145
-79.091 -59.7987 -666.793 -0.41632 -0.908908 0.0237263
-78.1606 -60.1121 -665.817 0.45137 -0.563182 0.692165
-113.241 36.4331 -656.415 -0.984286 -0.163817 -0.0659187
-77.3492 -59.4985 -662.63 0.554912 -0.823503 -0.117965
-113.639 42.1172 -647.44 -0.992399 -0.118406 0.0335167
-77.462 -53.4839 -654.987 0.271427 0.959458 0.0759451
-75.6421 -59.8466 -657.928 -0.00549798 -0.996841 0.079226
-113.822 42.599 -644.269 -0.982854 -0.0697592 0.170679
-75.4878 -59.8366 -657.453 0.155885 -0.985676 -0.0643695
-77.4842 -59.8636 -658.27 -0.0171368 -0.992011 0.124979
-73.8625 -60.5716 -653.469 -0.227953 -0.673813 -0.702861
-74.6247 -54.9073 -651.907 0.638937 0.725715 0.255141
-72.8391 -61.97 -652.104 0.153459 0.147624 -0.977066
-72.3632 -62.7595 -651.64 0.879745 0.446647 0.162955
-72.5567 -62.5306 -651.049 0.950435 0.30634 -0.0531845
-72.8869 -59.3919 -649.606 0.955943 0.275138 0.102334
-72.5095 -62.5754 -650.538 0.988885 0.135213 -0.061833
-76.023 -49.3263 -646.215 -0.880992 -0.444099 -0.163184
-76.2324 -48.9298 -646.145 -0.877556 -0.450039 -0.165411
-76.5473 -48.586 -645.514 -0.888368 -0.43436 -0.148771
-76.4216 -49.0873 -644.717 -0.770787 -0.632609 -0.0754608
-76.7271 -48.1231 -645.454 -0.909644 -0.320107 -0.264726
-75.4638 -49.881 -644.82 -0.640437 -0.766649 -0.0457072
-75.2982 -50.0109 -644.875 -0.640112 -0.763824 -0.0826456
-75.3494 -49.8984 -644.331 -0.619893 -0.780471 0.081219
-97.9069 27.0327 -625.694 -0.428259 -0.431435 0.794014
-101.78 29.3217 -627.006 -0.603582 -0.305624 0.736399
-103.563 45.3266 -613.248 -0.836791 -0.283008 -0.468708
-103.156 44.8606 -612.597 0.329074 -0.921831 -0.204786
-102.873 44.6199 -612.041 -0.321467 -0.816185 -0.480106
-102.742 44.35 -611.557 -0.443703 -0.865731 0.231595
-102.754 44.3945 -611.957 -0.878619 -0.476658 -0.0287409
-102.466 44.372 -611.122 -0.28536 -0.358295 0.888929
-102.79 44.7642 -611.068 0.571566 -0.127969 0.810516
-103.141 45.6578 -611.467 0.891011 0.136803 0.43288
-101.062 49.7011 -599.595 0.884761 0.455119 0.100323
-115.334 27.3487 -668.881 -0.965007 0.162803 -0.205563
-80.0516 -59.7944 -671.264 0.734262 0.209761 -0.645646
-79.6796 -60.9326 -671.843 0.634769 0.683491 -0.360429
-79.33 -61.3257 -672.509 0.666485 0.74033 -0.0878033
-79.7232 -60.9604 -672.378 0.660599 0.744912 -0.0933579
-78.4574 -59.2578 -668.81 0.90214 0.178412 -0.392825
-112.672 32.3626 -655.678 -0.978274 0.108665 0.176556
-77.758 -59.9321 -666.084 0.808472 -0.516572 0.282003
-113.896 38.7318 -650.538 -0.996447 -0.0814233 0.0215098
-77.1028 -59.2141 -663.239 0.60043 -0.789987 -0.124113
-75.2683 -59.5225 -657.526 0.574504 -0.491798 -0.654279
-75.0526 -59.4608 -657.383 0.56561 -0.486943 -0.665561
-74.8988 -59.6252 -657.122 0.491162 -0.859274 -0.142857
-75.1703 -59.3154 -657.559 0.5838 -0.388975 -0.712654
-91.1503 -14.2468 -650.822 0.729416 -0.314475 0.607501
-73.9271 -60.4325 -654.81 -0.889039 -0.397585 -0.227016
-73.8633 -60.3922 -654.949 -0.628315 -0.300015 -0.717782
-73.8197 -60.4528 -654.319 -0.806922 -0.549621 0.216317
-73.6628 -60.4529 -653.844 -0.681749 -0.690756 -0.240986
-73.6584 -60.0256 -652.145 0.975825 0.169856 0.137526
-72.867 -60.5913 -652.607 0.48218 0.384796 0.787041
-72.4378 -62.3543 -652.143 0.88163 0.462063 0.096055
-72.432 -61.79 -652.359 0.441671 0.291393 0.848538
-75.343 -50.2399 -645.913 -0.694173 -0.712598 0.101627
-74.9535 -50.6174 -646.043 -0.709135 -0.677431 0.195486
-75.4389 -50.215 -646.408 -0.744301 -0.649822 0.154098
-75.1317 -50.626 -646.51 -0.73097 -0.617552 0.290365
-75.7453 -49.8037 -646.307 -0.788621 -0.61471 -0.0144716
-75.9995 -49.3711 -646.222 -0.870403 -0.466962 -0.15603
-75.1799 -50.2375 -645.441 -0.596686 -0.774931 0.208442
-75.0185 -50.2358 -644.967 -0.602504 -0.776193 0.185778
-110.127 48.1446 -630.889 -0.912142 -0.103816 0.396508
-95.6571 20.3343 -630.612 -0.345685 -0.68836 0.637701
-107.26 39.3347 -628.852 -0.779744 -0.259607 0.569739
-108.214 56.6073 -616.839 -0.591644 -0.200832 -0.780784
-112.092 64.8211 -613.481 -0.909954 -0.203319 -0.361449
-113.853 76.5701 -611.788 -0.964179 0.0920401 0.248773
-103.573 45.8762 -613.39 -0.633293 0.0482208 -0.772409
-103.361 45.973 -613.548 -0.629966 -0.0999864 -0.770159
-103.536 46.4394 -613.504 -0.515054 -0.249957 -0.819903
-103.578 45.251 -613.387 -0.922246 0.373748 -0.0988655
-103.534 45.3557 -613.402 -0.912396 -0.0806577 -0.401284
-102.77 45.0029 -612.602 0.138783 -0.92224 -0.360851
-102.445 44.4072 -611.129 0.405349 0.240196 0.882042
-102.1 44.5749 -611.471 0.370283 0.321173 0.87163
-93.0153 -42.2573 -683.151 -0.281422 -0.234666 -0.930448
-91.7316 -33.3419 -681.657 0.00319356 0.504242 -0.863556
-78.6932 -62.088 -673.225 0.780751 0.554101 -0.288792
-77.9529 -62.4305 -671.878 0.670777 0.680786 -0.294259
-78.9255 -61.7078 -672.643 0.652618 0.70727 -0.27177
-79.3222 -61.3332 -672.512 0.587365 0.780046 -0.215709
-77.5005 -61.1676 -668.375 0.896469 0.441941 -0.0321126
-77.5088 -61.1526 -668.524 0.895394 0.444712 -0.0223942
-77.6605 -60.7607 -667.795 0.908713 0.398796 -0.1233
-87.639 -33.0909 -664.881 0.664708 -0.233663 0.709623
-77.7162 -60.3113 -667.25 0.916285 0.345915 -0.201903
-77.7629 -59.8582 -666.708 0.969506 0.0262347 -0.243661
-77.7609 -59.3854 -666.182 0.319755 -0.901389 0.291984
-76.5776 -58.8285 -662.887 0.898229 -0.374291 -0.230416
-76.4425 -58.8246 -662.405 0.932544 -0.248548 -0.261889
-76.3059 -58.833 -661.924 0.927165 -0.210399 -0.309996
-76.1505 -58.8166 -661.59 0.900945 -0.12762 -0.414742
-74.4922 -59.347 -657.257 0.615978 -0.787184 -0.0302278
-73.5094 -59.8736 -654.949 0.789029 0.0788297 -0.609278
-73.437 -60.2122 -655.145 -0.509038 0.347532 -0.787465
-73.2683 -59.415 -653.142 0.952849 0.297649 0.0590247
-73.3255 -59.9446 -654.483 0.808872 0.534177 -0.245724
-73.1744 -59.9259 -654.007 0.587522 0.722865 -0.36371
-72.3925 -60.7665 -652.686 0.428941 0.337489 0.83792
-72.2349 -61.1436 -652.673 0.495977 0.274095 0.823941
-72.0539 -61.61 -652.7 0.605714 0.191408 0.772317
-112.163 49.3897 -637.509 -0.983478 -0.00763285 0.180864
-74.4356 -51.3132 -647.269 -0.652449 -0.757781 0.00884037
-74.3481 -51.3791 -646.771 -0.660046 -0.75063 0.0298821
-74.3973 -51.3459 -647.193 -0.669426 -0.742659 0.0180598
-74.8265 -50.9738 -647.139 -0.660005 -0.75059 0.0317496
-74.7536 -51.0081 -646.636 -0.665773 -0.744755 0.045678
-98.8073 16.6258 -637.714 -0.477831 -0.692136 0.540948
-109.157 45.0703 -630.039 -0.85938 -0.187451 0.47574
-106.161 51.9497 -616.486 -0.263162 -0.405018 -0.875618
-103.279 47.0859 -613.639 0.145416 -0.244915 -0.958577
-102.298 45.8261 -612.233 0.300648 0.754597 0.583261
-102.004 45.4553 -611.803 0.190968 0.797127 0.572817
-101.84 45.2215 -611.595 0.219865 0.394297 0.892295
-101.327 50.4363 -605.147 0.955709 0.281763 0.0850244
-103.913 -0.112174 -674.459 -0.317713 -0.77208 -0.55041
-78.6968 -62.0965 -673.246 0.730816 0.611578 -0.303117
-78.6081 -62.5227 -673.802 0.658357 0.644781 -0.38836
-78.3741 -62.4915 -673.353 0.683043 0.662445 -0.307603
-78.1977 -62.4836 -672.885 0.360606 0.92263 -0.136808
-77.652 -62.8616 -672.539 0.592764 0.770982 -0.232848
-77.457 -62.8401 -672.128 0.520704 0.804002 -0.287137
-77.2627 -62.8398 -671.544 0.509932 0.860213 0.00197889
-77.2103 -62.8737 -671.105 0.78147 0.591711 -0.197947
-77.1534 -62.9145 -670.597 0.873933 0.414374 -0.254039
-76.9362 -62.8901 -670.143 0.825273 0.4103 -0.388045
-77.6 -61.9478 -670.557 0.758569 0.533293 -0.374394
-76.9405 -62.4198 -669.615 0.846888 0.281687 -0.451036
-76.9332 -61.9448 -669.09 0.716974 0.615573 -0.327136
-76.6941 -62.3835 -669.17 0.809927 0.437372 -0.390799
-77.321 -61.5666 -668.962 0.800747 0.553773 -0.228343
-114.327 43.0325 -656.459 -0.98658 -0.0997421 -0.129273
-77.3676 -59.0597 -665.607 0.892533 -0.420028 -0.164198
-75.7361 -57.582 -661.069 0.924134 -0.144497 -0.353692
-78.7638 -52.8561 -662.235 0.590078 0.806068 0.0454116
-76.0932 -58.8104 -661.467 0.904489 -0.130973 -0.405889
-75.8972 -58.7946 -661.006 0.91334 -0.141361 -0.381874
-75.7022 -58.7792 -660.544 0.911733 -0.142825 -0.385155
-75.4233 -58.1937 -660.11 0.828634 -0.308693 -0.466984
-75.301 -58.1691 -659.944 0.702486 -0.482444 -0.523222
-74.3546 -59.2146 -657.303 0.722615 -0.68486 -0.0937825
-73.9759 -58.9902 -656.024 0.892366 -0.39585 -0.216763
-74.1353 -58.9331 -657.376 0.906625 -0.403276 -0.124099
-112.454 45.9436 -641.768 -0.9836 0.0172755 0.179535
-72.8467 -60.1208 -654.116 0.643626 0.724567 -0.246472
-72.4028 -60.5401 -653.736 0.764657 0.637512 -0.0942262
-72.3379 -60.5777 -653.231 0.779493 0.613622 0.125927
-73.2416 -57.938 -652.088 0.973982 0.225118 0.0260804
-72.1595 -61.1051 -652.763 0.662368 0.298956 0.686946
-74.4059 -51.3387 -647.278 -0.644885 -0.76427 -0.00387281
-108.336 50.4531 -626.448 -0.863307 -0.328031 0.383532
-108.847 48.7279 -627.995 -0.871067 -0.176993 0.458166
-114.653 75.7473 -618.75 -0.995909 -0.0792722 -0.0433811
-104.501 49.5061 -615.19 -0.744764 -0.600929 0.290191
-104.399 49.597 -615.63 -0.742151 0.238547 -0.626345
-104.892 50.0221 -615.127 -0.165911 -0.508024 -0.845213
-104.157 49.5975 -614.903 -0.281323 -0.745522 -0.604197
-103.471 48.2586 -614.479 -0.829997 0.402711 0.385913
-103.312 48.1987 -614.074 -0.829997 0.402712 0.385913
-103.506 48.175 -614.467 -0.829999 0.402707 0.385914
-103.008 47.7325 -613.732 0.260649 -0.167439 -0.950803
-112.267 77.6384 -608.656 -0.791263 0.270042 0.548617
-102.552 46.2313 -612.659 0.955922 0.254739 0.146015
-102.53 46.1724 -612.683 0.914318 0.383815 -0.12926
-102.761 46.6785 -613.133 0.756202 -0.276462 -0.593066
-102.602 47.1806 -613.186 0.516444 -0.342819 -0.784704
-102.086 46.3338 -612.671 -0.916983 0.244488 0.315228
-102.024 46.4645 -612.324 -0.282951 0.138589 0.949069
-101.562 45.6355 -611.951 -0.319873 0.508289 0.799577
-102.091 45.7601 -612.242 -0.0646761 0.650715 0.756562
-101.828 48.6593 -609.694 0.956536 -0.262809 -0.126373
-106.84 57.8201 -605.41 0.0641151 -0.0411804 0.997092
-87.1624 -46.602 -681.506 0.340424 -0.296327 -0.892358
-93.2882 -23.9977 -676.789 0.0796456 0.431514 -0.898584
-84.0244 -49.8211 -678.968 0.594384 -0.198924 -0.77919
-77.4366 -62.8379 -672.084 0.539416 0.805901 -0.244038
-77.2717 -62.8348 -671.612 0.52886 0.846084 -0.0666993
-82.1479 -47.0908 -668.662 0.793756 0.500777 0.345215
-89.4141 -23.1048 -657.94 0.689669 -0.379496 0.616716
-75.0742 -58.1156 -659.699 0.816243 -0.281558 -0.504453
-88.592 -16.3963 -655.423 0.858276 -0.178608 0.481105
-74.8031 -58.0693 -659.262 0.901663 0.0587279 -0.428433
-74.6098 -58.0546 -658.8 0.899817 0.0877819 -0.427345
-74.3226 -58.5377 -658.368 0.878831 0.104269 -0.465601
-74.0886 -58.5064 -657.919 0.972373 0.0796642 -0.219418
-74.4387 -55.9436 -658.007 0.868543 0.448703 -0.210473
-73.697 -52.0583 -648.041 -0.71735 -0.685216 0.126051
-73.4493 -52.4295 -648.65 -0.71735 -0.685215 0.126051
-73.8026 -52.0373 -648.533 -0.71735 -0.685215 0.126051
-112.453 53.6548 -636.403 -0.979081 -0.043235 0.198825
-110.477 53.9733 -627.205 -0.920709 -0.309671 0.237483
-100.624 24.0093 -629.908 -0.548248 -0.547912 0.631836
-106.173 44.8105 -625.503 -0.75684 -0.365078 0.542136
-112.656 68.7865 -614.859 -0.921042 -0.328887 -0.208602
-113.721 72.8962 -615.343 -0.982162 -0.188033 -0.00066989
-104.248 49.6733 -615.802 -0.696177 0.542423 -0.470229
-104.017 49.777 -615.959 -0.459566 0.584889 -0.668359
-103.822 50.5647 -615.403 0.213744 -0.282742 -0.935078
-103.851 48.6299 -614.12 0.130733 -0.445523 -0.885674
-103.763 49.7775 -615.196 0.746508 -0.484297 -0.456269
-103.489 49.6966 -614.473 -0.0231616 -0.306888 -0.951464
-103.531 49.7779 -614.5 0.606315 -0.407948 -0.682613
-103.036 48.8915 -614.097 0.214113 -0.595619 -0.774206
-103.3 49.3115 -614.375 0.00659923 -0.355089 -0.934809
-102.719 48.3675 -613.675 0.493283 -0.196072 -0.847483
-102.704 48.4154 -613.68 0.486639 -0.317594 -0.813828
-102.998 48.8453 -614.038 0.224402 -0.592602 -0.773606
-102.664 48.3791 -613.605 0.564773 -0.283928 -0.774865
-101.959 47.2449 -612.873 0.87295 -0.422655 -0.243559
-102.064 47.4467 -612.943 0.0330074 0.102209 -0.994215
-102.552 47.2995 -613.203 0.730964 -0.121238 -0.67156
-102.309 47.7681 -613.284 0.839686 -0.452945 0.299615
-102.542 47.6709 -612.778 0.943595 0.0289596 0.329832
-101.988 47.4468 -612.714 0.0687283 -0.0201563 0.997432
-101.427 45.9575 -611.996 -0.437285 0.302473 0.846931
-101.29 46.2821 -612.041 -0.475319 0.363573 0.801178
-101.461 46.5142 -612.27 -0.329192 0.308467 0.892458
-101.7 46.9693 -612.432 -0.128273 0.194818 0.972415
-103.018 49.5994 -611.479 0.0396589 0.354614 0.934171
-102.945 49.6278 -611.493 0.0396578 0.354616 0.93417
-103.007 49.5796 -611.472 0.0396589 0.354615 0.934171
-101.125 46.0481 -611.833 -0.524837 0.330462 0.784437
-92.4641 -37.053 -683.602 -0.167201 0.237672 -0.956847
-93.987 -17.9349 -673.266 0.109038 0.447577 -0.887573
-96.4421 -7.92839 -667.192 -0.0857571 0.56054 -0.823675
-83.8889 -41.0408 -669.863 0.771764 0.139509 0.620418
-76.3624 -56.4284 -663.535 0.933564 0.217302 -0.285023
-114.34 45.3407 -648.759 -0.999309 -0.00874988 0.036117
-96.0336 7.56158 -643.41 0.0758193 -0.157302 0.984636
-114.008 74.3188 -621.406 -0.972215 -0.165837 -0.165213
-103.512 49.8537 -616.047 -0.412974 0.505435 -0.75762
-103.62 50.4008 -615.484 0.520899 0.130996 0.843507
-103.557 50.408 -615.505 0.325025 -0.0631682 0.943593
-103.31 50.4243 -614.743 0.468326 -0.717279 -0.515927
-102.158 47.9957 -613.334 0.912362 -0.409382 0.000963147
-102.014 48.352 -613.383 0.766199 -0.580286 0.276057
-102.358 49.0257 -613.593 0.825745 0.507493 0.246162
-102.233 48.9488 -613.31 0.174001 0.983446 -0.0505807
-102.467 49.4923 -613.35 0.960575 0.0451307 0.274335
-102.508 49.6984 -613.219 0.6308 -0.487887 -0.603372
-101.63 47.6267 -613.116 -0.366669 -0.20659 -0.907124
