ply
format ascii 1.0
comment Created by Open3D
element vertex 956
property double x
property double y
property double z
property double nx
property double ny
property double nz
end_header
18.7754 94.425 -51.515 -3.88614 3.78678 -0.787383
93.5551 100.631 -49.953 2.87197 -2.81659 -4.72386
9.91175 69.2824 -51.569 -0.942496 -0.985527 -4.0438
-23.2794 69.3125 -51.2 -0.4043 0.5843 5.75955
10.0903 72.42 -51.707 -2.21277 0.120513 -0.932288
10.0576 72.92 -51.207 -2.82858 1.02973 -1.04844
-4.1494 73.92 -51.707 -1.31078 -0.791729 3.38536
-3.6494 74.42 -51.553 0.0323095 0.30749 3.72295
-3.1494 74.42 -51.669 0.467771 0.125681 3.09785
-2.1494 74.92 -51.56 -1.12497 -0.00502143 2.12324
-1.6494 75.42 -51.328 -0.631596 0.618563 3.54124
-4.92439 76.5899 -51.722 -0.341056 0.0114608 6.26856
-1.1494 75.42 -51.356 0.840652 1.41649 2.38317
-0.649403 75.42 -51.607 0.374602 0.652036 2.28944
-0.149403 75.92 -51.692 -0.173048 -0.465546 3.00676
0.350597 76.42 -51.471 -0.801304 -0.295802 3.75651
0.850597 76.42 -51.245 -0.807601 0.383997 2.96757
1.3506 76.6255 -51.207 0.488143 1.05176 2.521
0.995842 76.42 -51.207 -0.588236 1.0156 2.27984
0.59001 77.5061 -51.407 0.400419 0.195959 6.15662
-2.46785 78.8121 -51.56 -0.856362 0.559155 6.11052
-0.175386 80.3317 -51.145 -0.342046 0.749483 5.78573
9.3506 80.92 -51.345 -1.38877 0.0515005 0.643206
9.3506 81.42 -51.324 -3.42962 0.0150985 1.81455
9.40648 80.92 -51.207 -3.6145 0.298123 1.45262
77.6746 89.1402 -52.47 2.69916 -2.65953 -4.96511
21.1372 97.115 -52.355 -3.87786 3.86135 -2.75848
102.038 107.089 -49.607 3.04307 -3.34402 -4.29867
71.7092 121.813 -52.173 -2.187 4.19766 -2.30271
66.8506 126.553 -51.707 0.577587 0.493151 0.577509
66.9641 126.42 -51.707 0.662151 0.565353 0.662062
66.8506 126.42 -51.594 0.662085 0.565296 0.661995
92.7525 131.142 -54.616 1.30147 4.99063 -2.76359
35.7219 51.6981 -50.614 0.390899 -5.35531 -2.65297
39.4805 54.1658 -52.676 1.79924 -4.67541 -3.61406
26.0947 53.3403 -50.165 -1.03583 -4.57615 -3.96422
10.101 73.42 -50.707 -2.6255 0.873741 -1.13201
69.0757 80.4634 -54.579 2.99531 -2.16449 -4.833
9.56338 80.42 -50.707 -3.08183 0.162903 0.655005
42.6108 116.724 -52.69 -1.80978 3.98253 -3.58346
61.2968 120.768 -51.183 -1.53328 4.33096 -4.23428
58.2602 117.879 -52.392 -1.21101 3.85154 -4.77018
98.333 130.294 -50.663 2.71754 5.03341 -2.10785
43.1904 52.808 -47.878 2.13801 -5.28407 -2.11817
12.5163 58.3253 -51.116 -0.645207 -1.1658 -6.04081
6.73546 59.7715 -50.17 -2.17763 0.117899 -5.64552
9.94776 73.92 -50.207 -2.87758 0.159482 -2.44862
9.64746 79.92 -50.207 -3.88015 -0.0112269 0.644938
9.66697 81.744 -50.728 -5.76961 0.712078 2.18764
74.1752 88.3596 -54.572 2.70041 -1.89384 -5.09451
18.5764 100.246 -47.015 -4.28855 3.15284 -3.2346
95.1656 103.96 -50.804 1.98164 -3.11385 -5.03223
72.8551 129.42 -50.707 0.90821 0.794345 0.434813
72.8506 129.42 -50.698 0.465994 0.40757 0.223098
72.8506 129.425 -50.707 0.850476 0.743849 0.407172
12.0138 54.6086 -50.183 -0.056549 -2.2088 -5.67624
9.915 74.42 -50.207 -2.26254 0.123084 -1.78614
9.8506 74.92 -50.066 -1.71097 0.283115 -0.730234
9.74857 74.92 -49.707 -4.32074 0.647139 -1.55821
9.68357 78.92 -49.707 -3.88853 0.154744 0.544733
9.64918 79.42 -50.207 -2.33266 0.0736034 0.327412
10.0879 81.4209 -47.531 -5.58418 1.5085 -1.52404
76.2238 80.5261 -48.365 3.72778 -2.62244 -4.28138
76.0128 126.464 -49.559 -1.90442 4.27976 -3.5856
21.6755 52.1653 -48.867 -0.102861 -2.78162 -5.58771
6.77308 54.957 -49.794 -1.38997 -1.21202 -5.74389
8.41894 65.5755 -49.609 -2.84946 0.448165 -5.49246
9.56301 63.4393 -50.649 -2.08678 0.514117 -5.84048
7.85944 68.0607 -49.296 -4.03915 0.755546 -4.68652
61.9972 69.2329 -49.586 2.04218 -3.4032 -4.13642
9.04352 72.1147 -49.262 -4.90861 1.27354 -3.55386
9.71395 75.42 -49.707 -3.08953 -0.191233 -0.565349
9.69425 75.92 -49.707 -3.075 -0.117199 -0.637123
9.21159 77.5189 -47.672 -5.44553 1.0599 -2.73136
9.67679 76.42 -49.707 -3.07324 -0.10452 -0.645975
9.66066 76.92 -49.707 -2.30623 0.0513079 -0.523918
9.62952 77.42 -49.207 -3.71023 0.516166 -1.04315
9.63319 77.92 -49.207 -3.84774 0.458344 -0.587645
9.66825 78.42 -49.707 -2.34495 0.209385 0.163514
79.4741 92.5545 -53.919 2.32083 -2.23505 -5.10911
98.4995 103.551 -49.503 2.1323 -3.80804 -4.12751
41.9774 119.932 -47.868 -0.912738 5.18009 -2.49941
48.673 118.251 -49.686 -0.439108 5.12714 -3.50887
105.893 121.646 -50.86 4.75948 1.73631 -3.46337
71.8573 127.145 -48.16 -1.73352 4.21596 -4.26056
8.18248 50.9577 -48.931 1.04195 -1.42468 -5.75391
17.5381 54.7357 -49.517 -0.275314 -2.43978 -5.7195
48.0668 56.0592 -48.605 3.22274 -4.48104 -2.74638
53.6224 61.3091 -49.438 3.29076 -3.78572 -3.49028
60.5044 67.3542 -50.199 3.05818 -3.2555 -3.79141
27.0561 106.081 -50.695 -3.06845 3.59605 -3.9406
106.56 111.381 -49.53 4.02754 -2.12142 -3.92998
34.6639 113.391 -50.486 -3.20799 3.73685 -3.73687
5.71354 49.8581 -49.1 -0.205015 -1.36707 -5.393
11.4941 50.6625 -47.821 -0.106046 -1.77272 -5.7938
26.8028 49.4588 -47.15 0.337621 -3.89989 -4.8826
4.38033 59.3042 -48.726 -2.8559 0.504073 -5.55686
11.6855 85.4548 -48.206 -5.14403 2.27205 -0.702277
4.48347 47.6632 -47.765 -0.232436 -2.57917 -5.55592
14.9527 49.983 -48.5 0.517063 -0.950042 -5.75889
15.0943 52.5942 -48.612 0.157246 -2.15136 -5.76363
1.91335 56.2189 -48.079 -2.28656 0.465732 -5.7763
3.26482 64.2969 -47.355 -3.44849 1.61742 -4.87715
68.232 73.894 -50.746 2.91162 -3.26277 -4.35411
33.9318 117.409 -44.6 -3.58253 4.27423 -2.46146
76.9287 130.156 -47.077 -2.30263 4.22257 -4.01125
12.2051 47.2792 -47.523 -0.459506 -1.9407 -5.80681
35.6309 50.5812 -47.395 0.853328 -5.46048 -2.85459
52.562 58.8024 -46.377 2.89273 -3.95296 -3.57269
26.6992 110.147 -45.734 -3.7342 4.06057 -2.83628
109.542 116.158 -46.801 4.9381 -0.165967 -3.73689
102.117 129.137 -46.8 3.12714 4.8327 -2.41495
88.4092 134.467 -46.6 0.614662 5.47734 -2.78651
-2.20578 48.4741 -46.802 -1.69382 -0.212123 -5.93579
16.9289 45.0661 -46.122 1.04751 -3.05318 -5.29146
19.448 49.7727 -48.246 -0.369617 -2.80075 -5.19735
53.3402 57.6956 -45.217 3.53487 -3.69361 -2.81354
82.4922 133.035 -47.634 -1.87413 4.77253 -3.50131
6.65348 42.9525 -46.083 0.0547201 -1.68612 -5.85257
7.9473 46.9969 -46.809 0.348644 -2.35521 -5.71128
78.3299 77.3201 -43.611 4.09281 -2.89991 -3.7075
38.7358 117.596 -48.66 -2.60187 4.46918 -3.50692
72.9413 132.164 -42.742 -1.75081 4.94242 -3.28452
5.41847 45.6032 -46.233 0.0529615 -2.19134 -5.61481
44.9566 50.6157 -41.363 2.35868 -5.12485 -2.73778
0.295576 52.7232 -47.779 -2.08612 0.0467807 -5.8091
-0.522467 60.6866 -46.124 -3.32343 1.85931 -4.8054
66.2319 70.4948 -49.02 3.13029 -3.66897 -4.00784
46.0985 120.522 -44.62 -0.695843 5.74145 -2.22687
-5.85287 44.0244 -45.285 -0.697314 -1.38554 -6.07375
20.8028 45.9094 -45.722 1.0223 -3.34855 -5.1701
31.2129 46.9865 -44.42 1.2585 -4.22149 -4.21488
-6.02676 46.4799 -45.84 -1.92057 0.0998069 -5.71443
45.9941 53.3209 -45.744 2.68137 -5.06737 -2.49685
-5.10195 55.9327 -44.666 -3.29974 1.49623 -4.96442
56.3447 62.8099 -47.903 3.10637 -3.96793 -3.70336
63.9319 66.7119 -47.557 2.00633 -3.87121 -4.02348
68.4854 68.1323 -45.292 2.45458 -4.18023 -3.88589
71.051 69.3149 -44.413 3.53055 -3.61664 -3.63959
72.3789 76.1031 -50.169 2.0281 -3.19209 -4.04759
6.05225 79.7448 -42.668 -4.9151 2.01792 -3.31194
10.0057 88.7704 -44.269 -5.00195 2.01008 -3.05282
94.2559 97.6977 -47.245 3.20968 -3.56538 -3.96748
-0.0574052 41.4536 -44.644 -0.431966 -1.59607 -5.77094
-0.160498 43.5815 -46.282 -0.187718 -2.66348 -5.26772
60.6505 62.3012 -44.224 2.78526 -4.33942 -3.57743
71.9491 72.4545 -46.104 3.04806 -3.80379 -3.85975
88.067 87.6301 -43.312 3.93988 -3.21509 -3.68369
92.3482 94.6207 -45.833 3.40968 -3.56672 -3.8525
37.037 119.714 -43.783 -2.28637 5.33384 -1.75252
109.923 120.326 -45.112 3.1559 0.377924 -4.83436
114.475 122.192 -44.908 0.862895 -0.980174 -5.94734
106.532 126.411 -45.146 2.35615 2.58104 -4.59805
103.643 130.547 -43.496 1.21303 4.1388 -4.38259
-4.95255 39.214 -44.691 -0.103587 -1.30366 -6.06053
87.4072 91.5833 -47.421 3.41538 -3.14769 -4.20998
23.075 106.064 -46.265 -3.97296 3.7758 -3.00391
118.472 124.875 -44.505 0.840844 0.18523 -6.11302
64.5763 128.307 -43.402 -1.67122 4.95295 -3.40854
68.7628 125.607 -48.315 -1.49559 4.43591 -4.16072
127.281 130.837 -44.129 -0.424529 0.471219 -5.98417
133.267 132.614 -44.51 -0.213512 0.00303659 -5.99544
-3.01977 36.5884 -43.916 0.0463321 -2.16032 -5.82573
0.753347 34.882 -42.967 0.798925 -2.91616 -5.41643
0.283863 39.4187 -44.661 -0.53637 -1.15086 -6.02894
12.8296 41.4558 -44.679 1.03465 -3.25253 -5.14181
106.707 105.138 -43.7 3.78977 -3.82513 -3.00308
121.367 122.684 -43.673 1.28249 -1.63056 -5.75811
111.114 127.997 -44.68 0.294011 1.86054 -5.81441
121.349 130.382 -43.87 -0.267627 1.66455 -5.69137
143.573 132.629 -45.085 -0.189528 -1.40913 -5.56107
131.075 136.125 -43.093 -1.72269 3.07481 -4.89578
145.521 139.782 -45.123 0.226276 0.710786 -5.86666
148.614 163.211 -43.589 -1.3007 0.578034 -5.976
151.411 166.053 -43.967 0.38234 1.52563 -4.65289
-6.92739 34.3579 -42.76 0.00507015 -2.0155 -5.93717
5.09679 38.2861 -44.06 0.826881 -2.74609 -5.54635
-9.49707 37.5817 -43.916 -1.19819 -1.18196 -5.87372
-9.12369 42.613 -44.629 -2.00329 -0.195708 -5.7759
25.6165 45.3849 -44.344 1.60669 -3.93978 -4.43758
52.1989 54.9976 -41.804 2.81922 -4.75249 -2.97044
81.6959 83.723 -46.513 3.46909 -3.14752 -4.12778
99.6853 99.5083 -44.105 3.35523 -4.08586 -3.30625
31.1706 116.216 -41.658 -3.88796 4.52652 -1.78661
115.52 118.13 -43.066 1.82412 -2.61754 -5.32412
129.239 126.87 -43.436 0.662344 -1.69621 -5.90201
149.823 150.052 -42.939 0.335407 0.607449 -6.01486
-11.1768 35.6048 -43.194 -0.815202 -0.977152 -6.02377
-15.2636 42.6603 -41.628 -3.14956 1.34642 -5.06247
28.3811 43.7657 -41.323 1.52634 -4.88275 -3.5467
-9.04275 53.1746 -42.819 -3.67016 1.92214 -4.44079
56.3173 58.0784 -42.809 2.69948 -4.35305 -3.58083
109.687 108.619 -43.645 4.48934 -2.79432 -3.08272
113.302 115.168 -42.239 3.52715 -2.37195 -4.41772
118.755 118.666 -42.054 1.80427 -3.28268 -5.01056
54.1285 122.43 -46.033 -1.75607 5.06409 -3.2392
140.386 129.916 -43.271 -0.0183589 -2.42076 -5.70859
82.8153 136.735 -43.004 -1.28395 5.1765 -2.7778
142.436 142.036 -43.625 -2.71227 2.47292 -4.79646
148.751 158.18 -42.934 -0.449135 -0.919272 -6.15637
151.083 161.322 -43.996 0.995737 -0.72895 -5.46174
146.451 163.203 -43.236 -2.48567 0.460541 -4.96927
-16.4223 36.284 -42.052 -1.90284 0.605717 -5.86442
8.81177 35.9012 -41.848 1.52286 -3.73869 -4.70746
3.4985 69.9578 -45.019 -4.37294 2.07231 -3.92815
85.0787 84.7026 -44.239 3.71557 -3.2087 -3.87189
13.4625 95.2828 -44.284 -4.65191 2.74922 -3.12807
51.2153 124.391 -39.553 -2.26378 5.60953 -1.46546
57.3497 127.11 -41.056 -2.38438 5.13653 -2.252
134.798 127.863 -43.176 0.693709 -2.53004 -5.58046
78.2463 133.457 -44.389 -2.80097 4.40361 -3.40006
159.205 138.706 -42.067 0.526242 -0.443613 -6.23609
160.933 141.32 -42.04 1.97908 0.538466 -5.46776
138.789 137.561 -44.237 -1.28687 1.72719 -5.49168
157.287 141.83 -42.424 0.223532 1.02186 -5.89821
148.437 154.003 -42.825 -0.844398 -0.130836 -5.83795
146.613 167.541 -41.663 -2.455 2.84109 -3.99661
-13.9487 31.8443 -42.402 -0.384919 -1.86856 -5.59221
-11.8796 45.6448 -42.733 -3.13333 1.27491 -5.25054
35.895 48.536 -44.153 1.75865 -4.89035 -3.48751
-5.01619 59.9245 -42.393 -4.15697 2.99583 -3.52146
74.8558 70.0153 -40.781 2.44954 -3.9979 -3.83306
76.5985 71.8532 -42.423 3.42316 -3.47125 -3.46193
18.5433 105.278 -40.708 -4.33664 3.92281 -1.86404
136.253 122.403 -39.144 1.37103 -4.04193 -4.5274
150.89 133.604 -43.329 1.58824 -0.823683 -5.95712
98.9842 134.428 -40.291 0.235026 4.39558 -4.3524
156.991 132.442 -41.766 0.597546 -0.873273 -6.16423
153.377 141.351 -42.357 1.32353 0.459571 -6.06705
-17.5522 28.0171 -41.724 -0.239587 -0.837087 -5.97529
-13.0039 29.7334 -41.348 -0.105844 -1.33205 -6.0559
-21.3473 31.244 -40.61 -3.05492 0.841716 -5.20147
-18.8041 32.9418 -41.723 -2.0053 0.320231 -5.65793
25.7623 42.3196 -39.976 1.7671 -4.91428 -3.44556
38.0169 45.6773 -38.815 2.17943 -4.99807 -2.88038
-0.293393 65.473 -42.919 -4.45182 2.70043 -3.47808
12.6283 97.816 -40.477 -4.69037 3.18723 -2.29043
15.2621 101.837 -39.176 -4.60817 3.77037 -1.7961
120.181 135.31 -39.726 -0.611799 4.50904 -4.30326
91.807 135.293 -42.484 2.49972 5.13382 -2.59915
146.351 157.95 -42.495 -2.82428 -0.596224 -5.29183
149.12 168.887 -41.191 -0.860404 4.24559 -4.18885
153.984 168.55 -41.59 2.54633 2.96308 -3.26103
-18.2106 23.5944 -39.916 -0.212037 -1.4866 -5.96154
-9.60196 28.1582 -41.557 0.351205 -1.77325 -5.82436
-11.6257 49.437 -42.124 -3.74242 1.61554 -4.58918
93.4029 87.9786 -38.314 4.1636 -3.22804 -3.38143
126.116 122.993 -42.732 1.23804 -2.39907 -5.42612
115.06 131.639 -42.807 -0.032434 3.25698 -5.19475
97.5789 132.123 -43.932 1.80993 5.34993 -2.52359
126.526 134.554 -42.342 -1.49844 3.74496 -4.62737
134.068 139.569 -41.323 -1.86777 4.38491 -3.82215
152.821 154.629 -41.703 2.19068 -0.122111 -5.85509
-15.3889 23.2908 -40.26 0.440837 -2.04873 -5.8098
-12.6857 25.2969 -40.777 0.346348 -1.98272 -5.75735
-21.5854 25.7658 -40.831 -1.3249 -0.462582 -5.80358
83.9545 79.5066 -40.024 3.14502 -3.43798 -4.10934
151.028 126.206 -40.981 1.07992 -2.76238 -5.43269
102.063 136.85 -39.017 -0.567178 4.3147 -4.0842
88.639 138.739 -39.539 1.11125 5.31287 -1.92119
144.467 149.971 -41.036 -3.47255 1.36334 -4.93642
157.209 147.685 -39.93 0.523226 0.780316 -5.67587
154.923 159.615 -40.738 3.08403 -0.586939 -5.30829
144.186 164.638 -40.794 -4.7352 1.45252 -2.66291
-4.45255 29.7292 -41.091 1.29681 -2.7254 -5.42811
60.8785 58.0997 -38.351 2.91066 -4.46977 -3.30608
67.0999 63.2085 -40.071 2.01963 -4.5437 -3.73823
95.8217 93.5275 -40.724 3.92625 -3.65532 -3.26754
27.0239 113.437 -39.791 -4.25549 4.20356 -1.35967
43.1728 121.674 -39.716 -1.38802 5.99531 -1.17211
149.26 123.337 -39.683 0.666273 -3.94631 -4.35871
158.954 125.79 -39.186 2.39323 -3.4304 -3.71719
155.608 126.337 -40.123 0.853599 -3.16859 -5.19965
159.27 130.6 -41.494 1.85664 -1.58979 -5.08003
143.26 154.024 -39.359 -4.77858 0.456268 -3.79806
-22.6026 21.5998 -39.979 -0.34608 -0.970429 -6.08573
-26.8876 24.8352 -38.794 -2.67681 1.05619 -5.45965
14.0898 35.4502 -39.072 2.41856 -4.15229 -3.90558
-16.8915 47.9517 -37.686 -4.2835 2.63299 -3.57289
79.803 73.6057 -39.1 3.84577 -2.97637 -3.85722
98.948 96.689 -40.648 3.74726 -4.11868 -2.89858
140.314 125.373 -40.317 0.37997 -3.60406 -5.0893
145.077 121.773 -37.833 0.0189107 -4.67538 -4.06286
68.8593 132.129 -39.633 -2.29028 5.25298 -2.40952
114.557 135.811 -38.331 0.329822 3.80795 -4.78013
108.106 134.328 -40.623 0.236912 3.59682 -5.13446
78.7439 137.739 -34.644 -1.87669 5.70657 0.122242
125.496 136.805 -38.601 -1.46129 4.58621 -3.84053
157.377 163.005 -39.98 4.26937 0.99953 -3.7028
-27.0247 18.7293 -39.58 -1.04514 -0.46585 -5.69591
-18.0876 20.302 -39.524 0.626348 -1.74257 -5.91625
-9.85802 21.6125 -37.938 1.98561 -3.17007 -5.01563
-20.6777 37.1816 -39.607 -3.74931 1.69267 -4.57712
21.2005 41.8123 -42.195 1.70242 -4.40617 -4.05529
40.3062 47.9433 -39.979 2.49308 -4.9321 -2.96155
70.9548 67.3209 -42.139 3.42274 -3.76606 -3.67333
1.9653 76.8037 -37.62 -5.28574 2.39715 -2.30721
88.2932 78.3232 -36.279 4.0681 -3.33376 -2.98694
102.796 101.618 -43.283 3.59496 -4.09762 -3.06912
22.0033 109.374 -38.556 -4.09585 4.42488 -1.42114
116.149 111.4 -36.149 3.59978 -4.4895 -2.27106
162.787 130.018 -37.613 4.59082 -2.03261 -3.65574
74.1808 135.19 -38.045 -2.3357 5.39373 -1.9761
139.406 144.312 -37.797 -2.80162 2.62064 -4.26028
160.25 154.66 -38.128 5.01203 1.65337 -3.20648
159.827 152.079 -40.059 2.60354 1.06558 -4.80362
-20.1737 15.3721 -38.161 1.16762 -2.42051 -5.46041
-22.4532 17.8588 -38.749 0.249017 -1.72835 -6.01194
-13.6592 18.1601 -37.441 1.95195 -3.13738 -4.98824
-7.94101 25.1463 -39.617 1.7354 -3.20611 -5.05452
-10.3731 56.3062 -38.431 -4.60387 3.27516 -2.60429
63.1534 130.346 -38.469 -2.17963 5.54808 -1.7471
92.5547 136.507 -38.598 1.69406 4.80479 -3.13527
162.819 142.567 -40.529 4.64845 0.331645 -3.20233
142.482 160.148 -36.903 -5.95722 0.640248 -0.690776
156.431 167.269 -37.113 5.04824 3.27865 -0.958781
152.655 171.24 -38.343 1.07781 4.51737 -1.25194
-23.8462 12.6056 -37.684 0.83903 -1.99842 -5.72438
4.41752 30.5995 -38.582 1.90467 -3.93627 -4.49147
16.5096 37.4019 -39.227 2.5084 -4.26933 -3.83701
-3.65664 66.969 -35.85 -5.00974 3.10668 -2.0854
69.202 62.6369 -38.825 1.8631 -4.52604 -3.76686
87.9143 83.6137 -39.901 4.05534 -2.68881 -3.85814
5.92189 85.8284 -38.054 -5.3985 2.2735 -2.1106
117.562 115.377 -40.124 2.29082 -4.09261 -4.09279
122.651 115.937 -37.959 2.07379 -4.84642 -3.18979
109.52 139.425 -37.297 -0.239977 4.54371 -2.87115
-24.9016 31.8978 -37.72 -3.95108 1.92539 -4.35567
18.5416 40.3489 -41.717 1.7193 -4.39273 -4.07612
73.3828 63.3047 -36.707 3.14274 -4.30274 -2.82104
77.0762 68.2704 -38.19 3.56728 -3.44939 -3.67702
83.257 73.3987 -36.773 3.39684 -3.46404 -3.77083
112.589 109.062 -38.974 4.60099 -3.40088 -2.26612
131.997 118.95 -37.306 1.70494 -4.7852 -3.45722
97.9561 137.761 -37.231 0.0688829 5.32773 -2.49785
131.855 140.781 -37.017 -2.00574 3.7075 -4.14959
-26.1406 14.3305 -38.019 0.136673 -1.65099 -6.05336
-31.1192 14.4136 -38.106 -1.92653 -0.294813 -5.51091
-28.7787 27.2534 -36.727 -4.03991 2.13324 -4.09991
33.0983 41.5538 -34.666 2.40725 -5.23192 -2.32675
9.49993 91.8313 -40.204 -5.26944 2.62374 -2.10606
17.5636 105.548 -32.702 -4.31009 4.39737 0.404657
125.967 117.185 -38.034 1.7569 -4.73215 -3.41743
161.563 135.935 -41.517 3.15728 -0.581969 -4.6317
99.619 138.091 -34.807 -0.100548 5.89398 0.751118
-33.6648 6.5596 -36.489 -0.654482 -0.830266 -6.09363
-3.42616 22.1239 -34.887 2.72483 -3.68422 -4.28375
7.65006 27.5161 -34.011 2.52893 -4.34585 -3.66909
10.534 31.9319 -36.568 2.28177 -4.38073 -3.8693
23.262 35.3683 -31.593 3.02198 -4.89995 -2.06508
-18.3845 47.8548 -35.325 -4.81254 3.38347 -1.25193
-13.4513 52.532 -37.779 -4.4703 3.28716 -2.79881
77.0005 64.223 -33.341 3.34779 -4.41276 -0.576684
29.4378 115.735 -35.691 -3.95496 4.85669 -0.0148627
144.723 118.962 -33.86 0.847789 -5.50747 -1.59909
155.836 123.156 -36.975 1.7412 -4.98968 -2.97955
122.522 137.744 -36.787 -0.471155 4.59334 -4.12141
139.869 149.866 -36.144 -3.76309 2.72889 -4.05064
-30.9112 2.933 -35.63 0.952718 -1.69639 -5.90859
-32.7616 10.6344 -37.266 -1.6219 -0.356603 -5.67454
-31.1112 20.6565 -37.042 -3.76798 1.33318 -4.70735
24.8595 39.5087 -36.876 2.23122 -4.86895 -3.23969
96.1776 89.3419 -35.849 4.62186 -3.52225 -1.98199
7.90101 92.803 -33.204 -5.37218 2.97013 -0.536577
11.0693 97.7623 -34.525 -5.19968 3.31304 -0.549736
113.289 108.457 -33.336 4.09673 -4.4552 0.694698
139.664 121.594 -37.431 0.329593 -4.67754 -4.10988
119.798 138.752 -35.931 -0.121033 5.13122 -3.3595
134.732 146.326 -35.992 -2.48495 3.12968 -4.27616
159.791 160.675 -36.631 5.51952 1.84989 -1.35814
143.372 165.497 -34.013 -5.33255 1.97763 0.798995
147.068 170.35 -38.677 -2.16444 4.29257 -1.50738
37.368 43.7546 -35.232 2.41514 -5.38177 -1.84259
0.288088 76.531 -32.263 -5.57476 2.6592 -0.410869
119.143 112.798 -35.095 2.72438 -5.23736 -1.80867
84.1777 139.118 -35.93 -0.757235 5.89112 -0.139795
129.907 142.153 -35.671 -2.7723 4.15742 -2.90122
133.89 146.512 -34.724 -3.40405 4.33472 -0.187393
-32.9385 -1.953 -34.624 1.05924 -1.88661 -5.7434
-40.4123 -2.328 -34.193 -2.19756 -0.269031 -5.36321
-37.1402 6.6596 -35.362 -3.18781 0.575209 -5.20983
-36.0619 13.8461 -34.431 -4.37687 1.50004 -4.0525
-1.06002 26.5039 -37.501 2.14115 -3.81761 -4.48297
107.4 102.346 -37.452 4.32699 -4.15558 -1.46562
164.613 146.009 -35.052 5.65486 1.45014 -1.9076
161.561 155.861 -33.44 5.47272 2.07114 0.485161
150.386 170.396 -38.28 -1.32133 5.92513 -1.25432
-26.3955 6.8416 -36.099 1.64926 -2.21156 -5.4057
-20.0968 10.6301 -34.997 2.68046 -3.31312 -4.57227
-14.4248 13.2715 -33.779 2.54278 -3.98535 -4.09041
-6.62438 18.048 -33.817 2.6806 -3.76552 -4.1475
-32.5603 24.9609 -33.257 -4.90761 2.55194 -2.59436
-27.2105 32.8766 -34.047 -4.89234 2.88678 -2.50765
50.2212 49.7082 -34.786 2.54207 -5.33907 -1.71262
93.3171 83.3653 -33.031 4.98556 -3.19712 -0.631408
101.428 95.7974 -35.847 4.42723 -3.96915 -1.82196
43.1386 122.173 -35.219 -1.64148 6.03978 -0.0118386
107.424 138.753 -33.79 -0.664878 4.7533 3.13264
111.246 140.318 -34.741 -0.237215 4.56401 1.15189
141.319 152.401 -34.926 -5.53592 2.63531 -0.044736
157.824 164.965 -33.506 5.03234 2.73766 1.52521
-42.5139 1.6921 -31.675 -4.65422 1.21851 -3.75675
-36.3947 2.8216 -35.872 -1.49536 -0.547891 -5.69023
-34.1307 20.4144 -33.869 -4.8758 2.00247 -3.23846
28.5916 38.9044 -33.413 1.99586 -5.39826 -2.11958
68.7038 59.6831 -35.017 2.75022 -4.9081 -2.50312
80.1854 68.8557 -34.804 4.07491 -3.78292 -2.81665
84.2255 71.9772 -33.381 4.35004 -4.01684 -1.03553
3.94491 84.6935 -32.195 -5.64218 2.53357 -0.458474
140.117 149.084 -32.955 -4.0039 2.96034 3.39733
146.437 170.467 -33.86 -1.92576 3.88235 1.15739
-36.4115 -8.843 -32.996 0.869596 -1.60763 -5.89607
-37.4431 -5.016 -33.664 -0.368678 -1.29302 -6.13314
-21.9697 41.2889 -35.868 -4.7686 2.58621 -2.77037
21.8719 110.308 -34.595 -4.3136 3.76682 -0.0335077
32.5805 118.507 -37.731 -3.55595 4.94739 -0.47324
150.152 120.481 -34.737 1.15801 -5.65156 -1.85228
158.284 121.825 -29.607 1.00755 -3.88438 -3.778
70.9332 134.338 -33.63 -2.3046 5.76152 0.318689
167.63 136.268 -33.026 5.334 0.703448 -2.42663
88.9953 137.139 -29.721 0.887951 5.93751 1.82692
90.014 139.082 -36.128 0.901012 5.73191 -0.0890594
118.171 136.3 -31.857 -0.460859 4.08153 4.23483
115.491 139.061 -33.63 0.284104 4.84362 3.37169
126.257 140.221 -34.413 -2.24357 5.30391 1.25426
154.673 169.563 -33.433 3.80597 3.98797 1.55107
-42.561 -6.356 -32.992 -2.56453 -0.0670757 -5.34433
-28.1877 0.289 -33.671 2.8632 -2.61355 -4.80855
54.6161 50.9882 -31.903 2.70226 -5.4303 -0.334425
89.1331 77.4083 -31.497 4.43546 -3.51101 0.949676
25.5039 112.725 -36.313 -3.8318 4.86039 -0.380106
123.726 114.034 -30.976 1.80499 -5.43609 0.881966
153.683 120.511 -30.688 0.578207 -5.79703 -1.7353
73.8912 135.681 -35.391 -2.56422 5.56082 -0.329569
91.5258 137.673 -33.325 0.0105068 5.42318 2.58669
134.111 145.856 -33.133 -2.56899 3.43506 3.85441
-43.7021 -11.237 -32.389 -2.24145 -0.532443 -5.27096
-41.2309 6.9227 -31.628 -4.8756 1.68815 -3.04941
-17.2096 6.5637 -29.24 3.65685 -3.82231 -3.2354
-38.8631 14.7709 -28.82 -5.41526 2.51161 -1.26781
2.45944 23.8201 -32.64 2.65332 -4.4892 -3.4359
57.3256 53.6713 -35.827 2.84588 -4.91642 -2.39791
71.4535 60.2885 -30.999 3.29904 -4.7586 0.622057
36.7317 120.922 -35.385 -2.18008 5.64228 0.0789983
165.426 129.455 -33.633 3.6987 -1.74623 -4.57556
170.547 124.363 -30.291 3.68779 -0.644633 -4.35146
57.8208 128.959 -33.432 -2.84674 5.39065 -0.0756503
110.857 136.582 -32.523 -0.385902 3.88506 4.70664
84.2635 138.209 -30.948 -0.316996 5.81511 1.65447
130.15 142.449 -33.357 -3.17844 3.8638 2.72017
-32.0796 -9.032 -31.279 3.26682 -2.29446 -4.67087
-22.0247 4.7453 -31.709 3.33762 -3.24756 -4.21013
-0.0818728 19.7608 -30.116 3.47809 -4.34115 -2.47679
95.9473 88.8138 -29.682 4.48319 -2.93121 2.46622
13.8682 101.799 -34.541 -4.62538 3.97905 -0.371801
127.734 115.579 -32.827 1.65055 -5.71041 -1.92394
63.5121 130.518 -28.904 -2.26116 5.48116 1.83461
64.9015 131.837 -33.675 -2.32961 5.75 -0.0571859
95.4491 137.86 -33.906 0.796438 6.08761 1.19889
164.646 147.8 -31.11 5.69424 2.08759 0.503572
-29.4703 -3.152 -32.604 3.20018 -2.56131 -4.63625
-28.8104 32.6344 -29.19 -5.12385 3.36887 -0.106763
60.181 54.2986 -30.956 2.976 -5.32541 0.665977
64.4879 56.3957 -32.695 2.78321 -5.18327 -0.849416
79.8103 66.7975 -31.232 3.74892 -4.19555 0.85322
99.8459 92.7111 -32.083 4.61272 -3.61741 0.824509
104.909 99.3038 -32.126 4.46318 -4.03753 1.12806
138.352 118.629 -33.048 0.811444 -5.7396 -2.12375
161.913 124.135 -32.25 1.69818 -4.06855 -4.05491
137.658 142.714 -30.739 -3.14644 3.05263 3.7081
156.182 164.488 -30.801 3.33151 1.60283 4.49885
148.45 169.602 -32.106 -2.01662 5.09828 2.65226
-40.8484 -15.362 -31.554 0.157252 -1.36835 -6.09342
-48.0326 -9.626 -28.04 -5.1823 0.981314 -2.52885
-45.766 -4.464 -29.795 -4.91234 1.28692 -3.21882
92.6968 83.785 -29.537 4.30795 -2.99309 2.91743
108.37 102.792 -32.011 4.37638 -3.89778 1.252
24.9363 110.735 -28.38 -4.05163 4.46829 1.67387
57.8986 127.894 -28.493 -2.56898 5.31421 1.96139
143.111 155.82 -31.433 -5.20427 1.20462 2.9557
-44.1408 -20.902 -30.451 -1.10256 -1.17942 -5.78423
-45.053 -15.479 -31.05 -2.5179 -0.620659 -5.42956
-4.37044 67.7461 -31.248 -5.30746 3.23345 -0.16188
20.5241 107.879 -29.988 -4.21118 4.21945 1.52185
115.003 111.416 -30.16 2.47644 -4.36274 3.7045
46.4326 123.287 -32.496 -2.32106 5.78054 0.377775
110.443 132.474 -27.949 -0.519235 4.68016 4.0494
131.601 139.272 -30.453 -2.02438 4.21142 4.1113
160.224 153.186 -28.914 4.00836 3.22641 3.54002
158.735 159.457 -31.012 4.09878 2.1254 3.96022
151.494 171.334 -33.186 0.0363517 4.72325 1.28281
-42.0635 -21.736 -30.024 -0.0603551 -1.48885 -6.06737
-39.9398 -20.386 -30.704 0.292847 -1.26195 -5.94818
-47.083 -16.215 -29.59 -4.12491 -0.263825 -4.47667
-47.5632 -12.825 -28.645 -4.49343 0.236535 -4.37989
-34.9264 22.9043 -29.406 -5.33086 2.84022 -0.761393
-19.5354 45.3556 -27.709 -4.67808 3.55568 1.81375
-12.1552 56.1672 -33.833 -4.98917 3.602 -0.619574
74.5743 63.1466 -31.073 3.82964 -4.6264 1.10365
16.0227 102.552 -27.076 -4.10759 4.40041 1.53117
147.047 120.052 -28.667 0.93411 -5.92444 1.51505
113.977 135.372 -30.429 -0.568604 4.7843 4.00258
167.456 138.402 -29.061 5.84232 1.95064 0.472049
153.698 158.476 -30.202 0.602476 0.803763 5.50746
156.028 160.142 -29.912 0.297619 1.60905 5.74782
-9.1776 14.6648 -31.877 2.75002 -4.36216 -3.46159
13.8985 29.372 -31.108 3.15586 -4.80167 -1.89525
26.6857 37.3658 -30.192 2.95903 -5.30468 -0.150022
-23.0957 41.5709 -31.017 -5.0959 3.36397 -0.00625607
39.0256 44.1167 -27.461 2.50217 -5.34419 1.57552
43.7165 45.8254 -32.781 2.57856 -5.41648 -0.963548
82.4973 71.0409 -29.128 4.28417 -3.40529 2.65886
6.31704 88.9524 -26.319 -5.36325 2.7955 1.25218
141.368 118.307 -31.489 0.591849 -6.07417 -0.275476
165.679 121.238 -30.593 0.141206 -2.48185 -5.61527
170.101 130.289 -27.515 5.75128 2.00833 0.738604
75.1267 134.725 -28.091 -1.77583 5.42722 2.31655
157.166 154.552 -27.737 0.165969 2.56043 5.16065
145.015 164.708 -29.871 -4.13983 1.53189 3.57423
152.841 167.866 -29.461 2.37185 2.55905 4.21083
148.786 167.653 -28.442 -1.26405 2.93224 3.92818
-38.5437 -25.296 -29.273 1.99408 -1.36349 -5.53293
-46.7156 -19.706 -29.164 -3.73523 -0.702545 -4.96412
-20.9521 1.4282 -28.013 4.17109 -3.4257 -3.01161
-4.13496 16.2592 -29.586 3.31925 -4.60895 -2.08899
-2.45581 17.243 -26.584 3.54053 -4.41199 1.52083
7.23074 24.6693 -29.996 2.98678 -5.0072 -1.77963
15.6234 30.3615 -27.01 3.19992 -4.94648 1.42653
19.0484 32.8904 -31.412 2.95757 -4.95644 -2.10086
138.594 118.211 -27.178 0.969874 -5.27913 2.25907
38.89 119.837 -24.741 -1.98711 5.03649 2.20559
171.226 121.358 -29.192 3.16923 -0.855604 -5.05102
69.0763 132.672 -28.653 -2.16776 5.50316 1.89437
106.4 135.932 -31.704 0.321843 4.59507 4.15303
95.3457 137.18 -30.801 0.0736036 5.28156 2.44903
123.15 137.298 -31.528 -0.973567 4.78977 3.85432
163.589 147.762 -27.904 4.94411 2.41112 2.72857
147.383 160.285 -29.036 -2.10122 0.495075 5.08508
-43.1252 -29.235 -28.901 -0.843253 -1.0124 -6.01011
-48.1494 -16.08 -28.241 -2.60775 -0.251039 -2.03089
-48.1494 -16.216 -28.207 -3.73633 -0.681504 -2.82286
-48.1494 -15.58 -28.245 -2.5074 0.378319 -2.16687
-48.1494 -15.442 -28.207 -3.59361 0.442391 -3.01284
-6.45794 13.94 -26.598 3.40369 -4.40569 0.820677
21.552 33.7167 -27.963 3.24761 -4.85458 0.984428
-10.4418 57.7591 -27.18 -4.77044 3.39373 1.79055
68.3513 61.9231 -25.255 2.11161 -4.50192 3.67412
12.3268 98.7424 -28.044 -4.80836 3.81049 1.08104
169.303 120.383 -29.44 1.4993 -1.56189 -5.89076
172.01 112.618 -27.216 2.06319 -1.26631 -5.43282
171.851 121.92 -28.55 3.5573 -0.60998 -2.92755
172.092 121.92 -28.207 2.12315 0.054967 -2.25486
171.851 122.42 -28.545 2.24684 0.0121434 -2.18869
171.851 122.92 -28.543 2.96163 0.254678 -2.08353
171.9 123.42 -28.207 4.10011 1.81572 -1.46116
171.572 125.42 -28.207 4.28431 0.275253 -1.6129
170.19 128.964 -30.835 4.58301 0.662051 -2.98442
145.879 157.859 -28.436 -2.99582 0.524694 5.0245
-40.171 -31.767 -28.384 1.45301 -1.20024 -5.75783
-51.6494 -33.08 -27.943 1.05894 0.0856617 -1.09146
-51.6494 -32.58 -27.909 2.03009 0.20539 -2.19249
-51.4037 -33.08 -27.707 2.40077 0.0967315 -1.9626
-45.8998 -32.563 -28.039 -1.88373 -0.637237 -5.61748
-51.6494 -32.08 -27.767 1.22837 0.658394 -2.95647
-51.6494 -31.58 -27.874 2.71271 -0.426021 -1.70439
-51.6494 -31.08 -28.041 2.70719 -0.456063 -1.72831
-51.6494 -30.58 -28.142 3.32572 -0.613238 -3.10108
-51.7539 -30.58 -28.207 0.64631 -0.208975 -1.03128
-51.6494 -30.08 -28.158 1.64961 -0.142049 -1.44072
-51.1936 -30.08 -27.636 5.21954 -0.974578 -3.24947
-51.1494 -29.58 -27.715 2.01628 -0.384076 -1.3104
-51.1456 -29.58 -27.707 4.11486 -0.657637 -2.08726
-35.6281 -17.846 -29.957 2.75778 -1.65232 -5.20684
-48.0125 -17.071 -28.182 -4.52832 -0.598949 -4.26125
-48.5604 -16.08 -27.707 -2.96947 -1.92091 0.756801
-48.5872 -15.58 -27.707 -3.57619 0.205735 -2.74762
-11.5962 10.1666 -27.75 3.54917 -4.50538 -2.12769
3.95216 22.108 -27.235 3.40907 -4.67778 0.545686
72.8542 63.2336 -27.161 3.82587 -3.71153 2.69427
84.7247 76.4758 -27.3 3.85263 -2.80746 4.06425
110.503 109.067 -28.227 4.00981 -3.15068 3.56653
132.642 116.268 -29.903 1.2007 -5.62572 0.462396
172.351 119.92 -27.966 3.48786 -0.131785 -3.22128
172.562 119.92 -27.707 1.78557 -0.0562241 -1.47374
172.351 120.42 -27.934 2.29157 0.0479473 -2.01229
172.351 120.92 -27.961 3.73518 -0.191528 -2.89
172.351 121.42 -28.017 3.55644 -0.0960814 -2.89998
172.492 121.42 -27.707 1.41019 -0.0481178 -0.692689
172.493 120.92 -27.707 1.36878 0.00225567 -0.768968
44.2206 120.851 -24 -2.36689 5.21605 2.23174
172.351 121.92 -28.034 0.884857 -0.0444639 -1.31974
172.136 122.92 -27.707 3.44886 1.45618 -0.676401
172.033 124.355 -26.033 5.72965 1.66558 0.628415
171.77 124.92 -27.707 4.07737 -0.935196 -1.19573
171.514 125.92 -27.707 4.48173 1.37203 -0.189322
94.1245 134.836 -25.001 1.07762 5.94292 1.70575
166.994 137.296 -25.918 4.69194 1.98584 3.1627
149.326 158.725 -27.55 0.561265 -0.0743318 5.51321
147.773 163.867 -27.682 -2.18642 0.270379 5.18395
150.307 164.674 -27.685 1.54956 0.632585 5.5551
-17.5417 -86.585 -27.378 -0.170982 -0.44214 -5.70003
-41.2695 -36.343 -27.582 0.761482 -1.40716 -5.9234
-51.1494 -33.08 -27.268 2.79885 -0.0194223 -1.41713
-51.1228 -30.733 -27.248 4.967 -0.663148 -3.69998
-51.1227 -33.08 -27.207 2.78133 -0.0249759 -1.44322
-51.0923 -29.08 -27.707 1.41551 -0.150934 -0.777122
-50.8178 -29.08 -27.207 2.74864 -0.432018 -1.45719
-45.5053 -24.874 -29.386 -2.12924 -1.05811 -5.48158
-48.6494 -21.08 -27.441 -3.08853 -0.373685 -3.56528
-48.8965 -21.08 -27.207 -2.18626 -0.383389 -2.21718
-48.6494 -20.58 -27.409 -2.25374 0.31966 -2.32433
-48.6494 -20.08 -27.29 -2.06541 0.225917 -2.08596
-48.6494 -19.58 -27.304 -2.10636 -0.220177 -2.17524
-48.6494 -19.08 -27.393 -2.10008 -0.5625 -2.09388
-48.6494 -18.58 -27.572 -2.23029 -0.53715 -2.32898
-48.6494 -18.08 -27.644 -1.94265 0.171262 -2.65569
-48.6494 -17.58 -27.567 -1.79561 -0.124661 -2.25238
-48.6494 -17.08 -27.68 -3.189 -0.0896323 -3.54882
-48.9292 -15.284 -27.24 -5.41406 0.390789 -2.89259
-49.0175 -17.08 -27.207 -2.67217 0.102357 -1.58791
-41.7668 8.652 -26.979 -5.61594 2.4633 -0.177055
33.2771 40.4113 -29.888 2.77327 -5.24986 0.52427
77.6032 68.7577 -25.592 3.30434 -3.93828 3.36157
-0.297964 72.8736 -25.158 -5.15368 2.4675 2.31166
99.2677 95.3265 -28.523 3.8545 -3.21481 3.70322
27.9073 113.701 -27.952 -3.94141 4.53701 1.44232
156.587 117.912 -28.229 -1.42156 -3.93527 -2.97581
172.764 118.92 -27.207 -0.193983 0.16812 2.53887
172.851 119.126 -27.207 2.66489 0.208543 0.83547
172.851 119.42 -27.347 2.25046 -0.0463122 -1.57716
172.351 122.575 -27.707 1.03673 0.65567 -0.25045
172.351 122.774 -27.207 2.53741 1.75676 -0.694697
171.646 125.42 -27.207 4.46647 1.39221 -0.144028
-17.4843 -87.814 -26.916 -1.64333 -3.63534 -3.96829
-10.1654 -87.156 -26.382 2.3342 2.60658 -4.63445
-50.8199 -33.08 -26.707 3.89978 -0.451143 -2.75425
-36.3832 -31.274 -26.164 4.06943 -1.34163 -4.49373
-50.6494 -29.08 -26.898 3.85179 -0.438395 -3.162
-50.4409 -28.58 -26.707 2.36174 0.127113 -2.01775
-50.6494 -28.58 -27.129 1.04074 -0.237865 -0.514411
-48.4978 -27.222 -26.978 -2.72446 -1.64207 -5.24605
-49.1494 -26.58 -26.721 -0.975356 -0.110555 -2.19753
-49.1494 -26.639 -26.707 -1.63578 -0.612248 -2.62159
-48.6494 -26.08 -26.872 -2.27278 0.199005 -3.27846
-48.6494 -25.58 -26.788 -1.68494 -0.195398 -2.0924
-48.6494 -25.08 -27.02 -1.79567 -0.986232 -2.47204
-48.6494 -24.58 -27.176 -1.91195 -0.355917 -2.67235
-48.6494 -24.08 -27.157 -1.78671 0.423826 -2.67124
-48.6494 -23.58 -27.035 -1.68394 0.576812 -2.5695
-48.6494 -23.08 -26.928 -2.02893 0.430574 -2.90977
-48.8743 -22.58 -26.707 -3.64016 -1.03825 -3.12846
-49.1494 -21.58 -26.82 -2.44133 -1.22384 -2.07406
-49.1494 -21.705 -26.707 -2.14749 -1.39678 -1.72331
-49.1494 -21.08 -26.952 -1.26215 -0.270069 -1.18704
-49.1494 -17.08 -26.909 -2.88917 0.128896 -1.22326
-49.232 -17.08 -26.707 -3.60922 0.349106 -1.34956
-27.3943 -9.345 -24.85 4.88358 -2.78603 -0.195338
-26.7433 -6.248 -27.623 4.06481 -3.24018 -3.47902
-20.1562 0.8266 -24.618 4.58772 -3.29449 1.06167
24.1798 38.0814 -24.099 2.80581 -4.27457 3.44372
162.439 118.096 -27.69 -1.0128 -2.64699 -5.34104
30.9906 116.306 -28.197 -3.48296 4.80276 1.55451
172.851 118.42 -27.076 4.12104 0.250463 -1.55208
172.952 118.42 -26.707 2.30056 0.14027 -0.567224
172.351 122.92 -26.809 2.77352 1.61513 -0.564281
172.351 122.942 -26.707 3.14125 1.25756 -0.210577
52.9408 125.894 -30.749 -2.62287 5.56954 0.733948
143.535 150.215 -27.415 -3.50807 2.8717 3.96911
-11.2221 -90.133 -26.558 -0.0983236 -3.72241 -3.97188
-10.2099 -88.801 -26.997 1.47669 -0.19414 -5.23707
-21.5936 -86.108 -26.144 -2.55321 -3.79511 -3.3925
-12.2049 -85.854 -25.308 -0.0747935 1.78445 -4.86669
-19.0151 -82.793 -26.964 0.636204 1.98637 -5.31848
-25.4794 -81.285 -26.805 -0.96956 -0.684424 -5.62344
-28.7692 -75.801 -26.543 0.787806 0.67787 -5.6829
-38.9332 -55.485 -26.217 1.68328 0.30606 -5.63536
-40.4603 -44.28 -26.713 1.41625 -0.440457 -5.82078
-38.1731 -37.826 -26.181 3.17929 -0.820756 -5.0954
-49.644 -33.959 -24.754 0.337961 -0.994934 -3.77548
-50.9049 -33.58 -26.707 1.98718 -0.128252 -1.30788
-50.6494 -34.08 -26.419 1.86531 0.453373 -1.16
-50.4663 -34.08 -26.207 0.831743 2.58452 -0.686652
-49.4824 -28.634 -25.849 -0.0155394 0.0415011 -5.15837
-50.1644 -28.58 -26.207 0.98581 2.44777 -1.51082
-50.1494 -28.08 -26.307 1.15986 -0.174634 -0.668097
-50.1494 -28.46 -26.207 1.68608 -0.236587 -2.90986
-50.0922 -28.08 -26.207 2.24247 -0.0371282 -2.12765
-49.1494 -27.08 -26.599 -2.01283 -0.701831 -2.63054
-49.1494 -27.575 -26.207 -2.74557 1.0435 0.532536
-49.1095 -23.08 -26.207 -2.78433 0.777887 -1.67983
-48.6432 -21.688 -27.352 -4.32149 -1.23275 -4.28813
-49.1494 -22.08 -26.419 -2.28593 -1.11584 -1.70882
-49.1494 -22.422 -26.207 -2.42014 -0.971859 -1.69313
-49.4994 -17.58 -26.207 -3.71328 0.437638 -1.24074
106.214 104.988 -25.829 3.9119 -3.10064 3.55425
168.01 111.333 -27.624 -0.613583 -1.84278 -5.43023
28.3402 112.21 -23.579 -3.34947 4.34829 2.49483
119.699 112.617 -30.794 2.00931 -5.16388 1.9025
173.081 117.92 -26.207 3.50838 -0.0737924 -1.38806
153.028 120.355 -27.06 -1.01647 -5.15428 2.45733
41.0274 120.822 -27.522 -1.21434 6.01718 1.18022
172.351 122.92 -26.346 4.21331 1.24742 0.0767262
172.496 122.42 -26.207 3.15046 0.802572 0.920616
129.488 134.199 -24.759 -0.910673 4.19208 4.4528
141.118 144.188 -24.773 -3.75391 3.0725 3.49651
147.57 153.194 -27.578 -0.870485 2.01313 5.65323
-8.96175 -90.08 -25.707 1.49943 -2.46893 -3.5509
-8.6494 -89.77 -25.707 0.973118 -1.80271 -1.89272
-8.6494 -89.58 -26.109 1.14761 -1.79695 -2.27291
-8.6494 -89.08 -26.13 1.65252 0.497033 -2.81498
-8.6494 -88.58 -25.912 1.60125 0.800717 -2.46642
-8.6494 -88.08 -25.786 1.11628 0.803185 -1.91724
-9.6494 -87.58 -26.188 3.1647 1.67071 -3.66544
-9.1494 -87.58 -25.764 1.03261 0.801733 -1.68224
-9.6494 -87.133 -25.707 2.09469 1.19722 -1.64225
-10.0905 -86.58 -25.707 1.88718 0.167602 -1.57291
-9.6494 -87.066 -25.707 -1.81973 -1.65034 -1.16886
-9.6494 -86.58 -26.046 -0.647833 -0.587527 -0.844743
-10.1494 -86.08 -26.014 -0.0737872 0.515403 -1.50068
-10.5936 -86.08 -25.707 1.39263 0.763476 -0.333622
-10.6494 -85.58 -26.01 -0.391308 0.21127 -1.40232
-11.0698 -85.58 -25.707 -1.59501 -0.491139 -4.07595
-11.1494 -85.08 -25.969 -0.499444 -0.414199 -1.2831
-11.5217 -85.08 -25.707 -2.00218 0.537426 -2.38552
-23.0222 -80.075 -26.184 1.56307 2.39306 -5.46993
-37.019 -71.212 -25.807 -2.39996 -1.33241 -4.84341
-40.5201 -61.235 -26.032 -1.15278 -0.566173 -5.69666
-40.8951 -49.839 -26.322 1.23219 -0.123705 -5.92527
-43.1672 -55.191 -25.999 -2.09713 -0.704352 -5.54903
-44.3064 -47.377 -26.195 -1.93962 -0.683537 -5.7478
-45.095 -40.678 -26.909 -1.58121 -0.680678 -5.71642
-50.2842 -34.08 -25.707 1.78493 -2.91115 -0.82831
-49.8266 -31.845 -25.685 0.920178 -0.842202 -4.79352
-49.6494 -28.08 -25.751 -0.64568 0.372057 -3.20556
-49.6494 -27.58 -25.789 -1.04178 -0.0936403 -1.24586
-49.1494 -23.08 -26.149 -1.83084 0.586872 -1.2494
-49.1494 -23.117 -26.207 -0.739332 0.797112 -0.504533
-49.1494 -22.58 -26.118 -2.34863 -0.168514 -1.12023
-49.6494 -19.08 -26.12 -2.98057 0.301496 -0.948345
-49.7827 -19.08 -25.707 -3.74696 0.360389 -0.991682
-49.6219 -19.08 -26.207 -1.52059 0.140482 -0.441818
-49.5908 -18.58 -26.207 -3.0771 0.196189 -0.616894
-49.5523 -18.08 -26.207 -3.04739 0.245739 -0.75107
-30.5893 -15.473 -26.263 4.87338 -2.00969 -3.21818
-49.6244 -14.369 -24.701 -6.05548 0.890127 -0.806821
-45.1913 0.5033 -26.271 -5.73201 2.07201 -1.03982
-43.8597 4.0457 -23.841 -5.33063 2.47754 1.32574
8.42625 28.5116 -22.94 2.60616 -3.4268 4.32485
9.37244 25.9803 -27.437 3.39082 -4.81368 1.34003
12.2282 30.4634 -23.644 2.52211 -3.75834 4.14306
50.8838 49.7656 -27.135 2.59724 -5.17037 1.73062
57.7521 53.6924 -27.586 3.43516 -4.63366 2.09478
65.2276 57.6535 -29.027 2.86048 -5.04574 2.21785
-6.16615 63.7565 -26.06 -4.73558 2.90689 2.36721
2.71979 80.4846 -25.721 -5.52533 2.28797 1.59656
92.0742 87.0297 -26.815 3.50299 -2.24472 4.51196
172.385 108.769 -26.116 1.99862 -1.31709 -5.53456
173.028 116.013 -26.995 4.75987 -0.112498 -3.66905
173.465 116.42 -25.707 3.36413 0.97067 -1.44917
173.389 116.92 -25.707 2.66462 0.752633 -1.27948
173.351 117.029 -25.707 3.24071 0.53948 -1.23933
159.042 115.933 -25.254 -2.77067 -2.15422 3.11146
173.351 117.536 -25.707 3.06153 -0.216948 -1.06436
173.351 117.92 -25.996 1.03622 -0.992177 -1.32131
132.454 118.024 -26.341 0.394816 -4.76258 3.82248
172.851 121.175 -26.207 1.5542 0.456524 -0.057366
172.851 121.149 -25.707 3.27454 0.977698 0.237543
172.757 121.42 -26.207 1.88171 0.707369 -2.31831
172.62 121.92 -26.207 3.02014 0.825014 0.283319
48.9357 123.049 -25.265 -1.90913 5.55915 1.95078
112.947 132.462 -26.949 -1.39112 4.32302 4.25547
72.2943 131.945 -24.865 -1.51618 4.82294 3.54636
97.7981 134.639 -26.334 0.916175 5.7746 2.28173
-9.6494 -90.633 -25.207 0.633029 -3.11867 -1.89203
-9.50857 -90.58 -25.207 1.02101 -2.6428 -2.26271
-9.1494 -90.44 -25.207 0.825352 -2.48945 -2.07584
-8.6494 -90.08 -25.54 0.573499 -0.578694 -1.06838
-9.6494 -87.08 -25.676 0.707887 0.226763 -1.6051
-11.6494 -85.08 -25.527 -2.10027 0.737721 -2.723
-12.1494 -84.58 -25.392 -0.973851 -0.097534 -2.14319
-12.4929 -84.58 -25.207 0.435185 0.133833 -3.90717
-12.6494 -84.08 -25.325 0.558906 0.609368 -1.80783
-12.8656 -84.08 -25.207 0.357583 2.27945 -1.25894
-13.3827 -83.58 -25.207 -1.01876 2.12933 -2.7615
-13.1494 -83.58 -25.29 0.502025 0.902252 -1.96114
-13.6494 -83.08 -25.317 -0.635448 -0.690338 -1.70141
-13.9369 -83.08 -25.207 -0.275022 -0.291805 -0.719184
-13.6494 -83.351 -25.207 -1.28867 -1.47011 -3.53033
-28.1329 -81.608 -25.428 -3.03899 -3.22824 -3.61433
-15.6494 -81.58 -25.273 -0.20844 -0.872573 -1.15664
-16.0159 -81.58 -25.207 -0.819702 -2.88296 -2.76213
-15.6494 -81.668 -25.207 -0.532505 -1.98947 -2.35034
-16.1494 -81.08 -25.241 -0.260654 -0.160876 -1.7906
-16.3482 -81.08 -25.207 -0.523103 -0.0656384 -3.09703
-32.9726 -74.978 -26.209 -1.66023 -1.32294 -5.51317
-34.5038 -66.377 -25.771 1.52546 0.999508 -5.70146
-45.8499 -36.982 -27.106 -2.24134 -0.932092 -5.55257
-47.3645 -34.558 -26.651 -3.66998 -1.45424 -4.85826
-50.1494 -34.519 -25.207 0.797941 -0.364853 -0.438647
-50.0117 -34.08 -25.207 -1.37424 0.464753 0.99118
-49.9532 -19.58 -25.207 -3.83015 0.54603 -0.68725
-16.7474 4.9919 -24.913 3.98291 -3.59296 1.30107
17.3779 33.3549 -24.016 2.54148 -3.95561 3.91468
44.6623 46.4996 -28.617 2.67274 -5.39274 1.24198
62.9531 59.0908 -23.682 2.86662 -4.214 3.29844
173.851 109.457 -25.207 1.74175 -0.124138 -2.66479
173.851 109.92 -25.229 3.24188 -0.354844 -3.12937
173.861 109.92 -25.207 1.40241 -0.0319203 -0.68437
173.851 110.42 -25.281 2.11621 -0.246879 -2.29313
173.851 110.92 -25.341 1.98532 -0.367381 -2.28155
173.851 111.42 -25.474 1.90499 -0.624547 -2.44205
173.851 111.92 -25.59 2.6572 -0.379998 -2.43969
173.851 112.42 -25.297 2.37785 0.234378 -0.656796
173.851 112.92 -25.372 2.76082 -0.223103 -1.82601
160.665 114.551 -26.245 -2.13363 -3.64983 -3.00144
173.851 113.42 -25.339 2.54924 -4.30793e-05 -1.26745
173.851 113.92 -25.47 2.58082 -0.454604 -2.01712
173.851 114.42 -25.488 3.12394 0.123994 -1.57588
173.851 114.92 -25.287 2.42717 0.188596 -1.04932
173.851 115.42 -25.357 2.92046 -0.112585 -1.50819
173.851 115.92 -25.341 2.07649 0.29791 -1.0171
173.351 117.42 -25.592 2.04381 -0.130769 -0.339433
172.851 120.965 -25.207 3.11937 1.02308 0.569448
155.82 123.049 -25.197 0.502031 -3.87932 4.31343
61.883 127.528 -24.493 -1.97777 4.90565 3.3082
86.6659 135.161 -23.198 -0.613323 5.77932 2.14405
-10.1494 -90.824 -24.707 0.425451 -3.42324 -1.68621
-9.1494 -90.58 -25.082 0.339305 -0.871819 -0.971623
-9.1494 -87.58 -25.078 1.04968 1.14708 1.06105
-9.1494 -87.856 -24.707 1.71304 2.11601 1.55429
-9.6494 -87.08 -24.973 1.80926 1.46353 2.2612
-10.1494 -86.58 -24.975 1.70348 1.54875 2.00032
-10.6494 -86.08 -24.893 2.06456 1.69958 1.88831
-10.6016 -87.013 -24.255 2.87066 2.4543 4.88972
-10.8039 -86.08 -24.707 3.46995 2.59319 2.68033
-11.1494 -85.58 -24.932 1.17432 1.26166 1.0295
-11.1494 -85.765 -24.707 1.81886 1.97047 1.62142
-11.3455 -85.58 -24.707 0.62965 0.668964 0.550462
-14.2415 -84.229 -25.868 1.9443 2.24301 -5.24816
-14.1494 -83.58 -25.152 0.863021 2.8094 -2.6585
-13.6494 -83.58 -25.104 -0.787117 1.63886 -2.8385
-14.6494 -83.08 -24.889 1.54583 1.90583 -1.59221
-15.1494 -82.58 -24.815 1.45402 1.87246 -1.88579
-15.6494 -82.08 -24.84 0.495355 -0.165791 -3.46606
-17.0797 -81.396 -25.077 0.338061 2.04101 -5.49682
-16.6494 -81.08 -25.156 -0.76676 0.086231 -3.81738
-17.1494 -80.58 -24.975 -0.794791 0.309025 -3.02335
-17.6494 -80.08 -24.792 -0.983155 0.0445666 -2.17323
-17.8231 -80.08 -24.707 -1.70371 -0.0267238 -3.75951
-27.5642 -72.141 -24.481 3.14029 2.44445 -4.75644
-39.3444 -66.652 -25.674 -2.33735 -1.20611 -5.09851
-36.8731 -44.433 -24.59 4.1105 -0.561441 -4.53529
-48.6494 -38.58 -24.778 -1.9503 -0.507359 -2.51203
-48.6494 -38.796 -24.707 -3.68098 -1.07229 -2.85042
-48.6494 -38.08 -24.868 -2.19437 -0.0951118 -2.79149
-48.7446 -37.58 -24.707 -2.85794 -0.157141 -3.2876
-49.1494 -35.58 -24.746 -1.66824 -1.35314 -2.28934
-49.1494 -35.645 -24.707 -1.60779 -1.46769 -2.29804
-49.1494 -35.08 -25.043 -2.46948 -1.0726 -3.2491
-49.6494 -34.58 -24.777 -1.04054 0.0859543 -2.07471
-49.6494 -34.08 -24.746 -1.63687 -0.0626006 -1.89305
-50.1197 -21.08 -24.707 -3.82842 0.144501 -0.952178
-49.9579 -20.58 -25.207 -2.25621 0.0402851 -0.586458
-49.959 -20.08 -25.207 -3.0442 0.018834 -0.789504
-39.5716 13.1569 -24.515 -5.37556 2.50505 1.45362
2.42589 23.1996 -23.878 2.80278 -3.8341 3.94087
-23.1545 39.6148 -26.442 -4.58787 3.52785 2.27997
9.70541 94.7908 -27.039 -5.08884 3.32044 1.27788
170.449 110.44 -26.662 0.946614 -1.59961 -5.95695
173.851 109.42 -25.206 2.9905 -0.395826 -3.35529
174.121 109.42 -24.707 2.12506 -0.174632 -0.711585
173.351 119.336 -25.207 2.02379 0.697253 0.573327
173.351 118.923 -24.707 3.03919 0.946938 0.980558
173.321 119.42 -25.207 2.88457 0.953014 0.846396
173.175 119.92 -25.207 2.90191 0.804889 0.882463
172.054 121.135 -22.819 4.45866 1.74961 3.44003
173.023 120.42 -25.207 1.52945 0.464743 0.327892
172.916 120.42 -24.707 4.89999 1.09102 1.71589
172.851 120.92 -25.134 3.17515 1.11968 0.804521
172.18 123.48 -26.048 6.0712 1.43791 0.326787
155.102 151.285 -27.598 -1.28076 2.4418 5.13682
155.935 148.298 -25.631 -1.83565 3.01217 4.68848
-12.4941 -91.08 -24.207 -1.57231 -4.19572 -1.80392
-12.1494 -91.08 -24.317 -0.321073 -3.05127 -1.42222
-11.6494 -91.08 -24.334 -0.0607575 -2.85773 -1.22886
-11.1494 -91.08 -24.369 -0.0958125 -2.86734 -1.23712
-10.6494 -91.08 -24.412 0.259779 -3.00183 -1.5182
-10.1494 -91.08 -24.318 0.145825 -1.17608 -0.774206
-9.1494 -88.08 -24.399 1.55715 1.8151 2.25034
-9.1494 -88.408 -24.207 1.43495 1.56909 2.22881
-11.1076 -86.08 -24.207 2.30471 1.15321 1.91025
-18.1494 -79.58 -24.639 -1.2573 -0.291745 -2.52475
-18.6494 -79.08 -24.345 -1.15719 -0.180276 -2.97795
-19.1494 -78.58 -24.329 -0.752785 -0.439998 -2.12393
-19.4317 -78.58 -24.207 -1.64823 -1.12076 -3.97346
-19.6494 -78.08 -24.391 -0.712358 -0.669341 -1.41487
-19.932 -78.08 -24.207 -2.26812 -1.02569 -3.61521
-20.1879 -78.464 -23.938 -1.13639 -0.430509 -5.80428
-20.1494 -77.58 -24.226 -0.887364 -0.490482 -1.6245
-20.1845 -77.58 -24.207 -1.46781 -0.80016 -2.64313
-35.3537 -75.584 -24.343 -3.87799 -3.39591 -2.72583
-35.7674 -59.257 -24.796 2.99616 0.829313 -5.302
-45.7356 -53.166 -24.542 -4.24489 -0.972632 -4.34648
-47.5621 -42.616 -25.069 -3.93664 -0.807763 -4.72378
-48.6494 -40.58 -24.395 -2.38713 -0.543274 -2.20791
-48.6494 -41.004 -24.207 -2.52767 -0.780389 -1.72816
-48.6494 -40.08 -24.491 -3.35046 -0.346676 -3.46458
-48.9103 -40.08 -24.207 -2.31555 -0.115816 -2.12071
-48.3785 -39.46 -24.807 -4.0951 -0.719157 -4.67142
-49.0584 -38.58 -24.207 -3.48786 -1.07842 -2.15552
-49.1494 -37.08 -24.426 -2.19927 -0.210547 -2.50123
-49.1494 -37.58 -24.274 -0.970882 -0.275549 -0.906546
-49.1494 -36.58 -24.407 -1.96142 0.00425234 -2.39851
-49.1494 -36.08 -24.422 -1.69468 -0.558892 -2.08217
-33.6517 -26.07 -25.144 4.93602 -1.64877 -2.91111
-50.391 -24.58 -24.207 -3.82212 0.154919 -0.935637
-50.2399 -24.08 -24.707 -2.26982 0.110851 -0.605779
-50.2066 -23.58 -24.707 -3.00057 0.193647 -0.898329
-50.1793 -23.08 -24.707 -3.01913 0.164601 -0.852123
-50.1523 -22.58 -24.707 -3.02003 0.160649 -0.847446
-50.1494 -22.523 -24.707 -3.02303 0.152546 -0.839318
-50.1277 -22.08 -24.707 -3.02355 0.121776 -0.814263
-50.1179 -21.58 -24.707 -3.04258 0.0336215 -0.758115
-50.5087 -20.831 -23.106 -6.00067 0.630324 0.110638
-22.8993 -3.347 -25.83 4.43307 -3.29794 -1.15716
-11.2939 10.1227 -25.514 3.77697 -4.01548 1.81338
-2.91454 20.1475 -23.17 2.68458 -3.39888 4.46954
-30.6997 28.8544 -25.651 -4.81648 3.2094 2.00183
-15.4978 50.2921 -26.665 -4.76662 3.32165 1.96978
57.7563 56.0715 -23.752 2.91446 -4.54525 3.14265
69.6478 70.4206 -18.206 3.43578 -2.57637 4.44252
71.5327 66.9737 -21.904 3.1205 -3.16956 3.99223
88.0957 91.0011 -22.48 3.46744 -2.02261 4.82061
93.6291 97.0041 -23.374 2.85644 -2.57794 4.93292
168.471 104.126 -25.464 -1.37069 -1.51551 -5.45679
174.168 105.92 -24.207 1.02096 -0.0703962 -2.31574
174.125 106.42 -24.207 2.90344 -0.518869 -2.61857
174.073 108.92 -24.207 3.13388 -0.206997 -0.175067
164.334 110.722 -24.934 -4.0362 -2.55273 -3.83799
163.158 112.198 -23.895 -4.03884 -1.72442 3.09714
173.851 116.42 -24.417 3.31244 1.30909 0.99412
174 115.92 -24.207 3.12577 1.45307 0.846385
173.851 116.655 -24.707 2.05415 0.59182 0.637971
173.787 116.92 -24.707 2.94472 0.646105 0.921676
173.688 117.42 -24.707 2.95213 0.585526 0.873172
173.574 117.92 -24.707 1.53839 0.349293 0.391781
173.447 117.92 -24.207 4.50605 1.03089 1.47942
173.351 118.42 -24.313 3.30071 0.903411 1.21341
173.351 118.92 -24.705 2.86055 0.814057 1.02871
173.252 118.636 -24.207 5.71372 1.57732 2.08356
124.429 117.759 -25.989 0.874191 -4.39298 4.33416
161.485 120.961 -25.085 -2.58363 -1.12181 4.87675
151.722 123.338 -22.573 0.535296 -4.96687 3.66388
81.6191 136.489 -28.338 -1.44705 5.56443 2.468
135.823 133.832 -22.643 -1.76782 2.5839 5.24695
137.85 137.867 -24.374 -3.89922 2.79152 3.85787
